3.4310847224703185 7.1458581852322265 1.4992931299460888 9 73 109
3.5566889863294633 7.138104707253835 1.4944494193902562 9 73 135
3.58053193217866 7.140720734089587 1.4932046359412587 9 73 139
3.385483620524682 7.160780929842089 1.4963329012517521 9 74 97
3.4956027509060084 7.1342948214041 1.4935232090761386 9 74 124
3.5959353471532123 7.128248983297636 1.4895089676963125 9 74 144
3.80673872853493 7.1336016978711365 1.4796231098616928 9 74 179
3.4009046438556627 7.168686699085171 1.4912181108834506 9 75 99
3.4588456687938782 7.150571080924327 1.4900107599210803 9 75 114
3.8758605051922204 7.119974667146387 1.4732155734870593 9 75 192
3.4243072771911027 7.144979217574106 1.4882571829652018 9 76 108
3.438226047921711 7.149983034141211 1.4871838315280264 9 76 110
3.480257266180178 7.135464360101773 1.4824950630081855 9 77 121
3.409625802095609 7.1398745442643925 1.481801353898092 9 78 106
3.4311353472691426 7.148293065456829 1.4800128954533056 9 78 109
3.394391371836102 7.16267802072624 1.4768687361603896 9 79 99
3.4766988340152944 7.143945247891496 1.4741911257948574 9 79 119
3.5806930116725604 7.131289167352769 1.4698770548487468 9 79 141
3.4366708153118894 7.16179486175403 1.4709006812820051 9 80 108
3.9502739338717316 7.114752974336124 1.4476131703386543 9 80 204
3.970908776851813 7.114494890169921 1.446538249256132 9 80 207
3.548884506945506 7.138476405809559 1.4629309330470621 9 81 134
3.5935962552701457 7.134171147521485 1.4608629883422213 9 81 143
3.791026308633634 7.120109523116183 1.4513051736369706 9 81 179
3.8642839263603097 7.098243467489414 1.449193698916638 9 81 194
3.9870674287929773 7.116440224722114 1.4409273583448534 9 81 209
3.492925483039861 7.1346219948492795 1.4623970551094425 9 82 124
3.577168415544544 7.128559169020454 1.4582119663665325 9 82 141
3.7411678823532895 7.144100517311635 1.4476850179816378 9 82 167
4.048348265796096 7.1133127899354704 1.4331800873780294 9 82 218
3.43194519739479 7.163460285230872 1.4594363638439338 9 83 107
3.771748042506533 7.120046442979936 1.4437679266362005 9 83 176
3.8061036659362433 7.116889094416198 1.4420755358173654 9 83 182
3.9029838465107183 7.115765128420734 1.4366196337679638 9 83 197
3.451136096483494 7.151960460574859 1.451573491972911 9 85 113
3.5838551832409715 7.142926956010076 1.4444022246426829 9 85 140
3.79209735841532 7.116041480211017 1.4342881804001806 9 85 180
3.8519968533408377 7.1303911499443124 1.4294019573484467 9 85 187
3.8544488622738786 7.108178404438064 1.4312431166628967 9 85 191
3.493290549726619 7.130862889361364 1.4469929124014569 9 86 125
3.6667720668108 7.123802589409854 1.4369573880162112 9 86 158
3.883417327955408 7.116831833116468 1.4242581130707839 9 86 194
3.4260098683584266 7.152330804994495 1.4453293849248146 9 87 108
3.4363941932834194 7.153023432808869 1.4446127844925059 9 87 110
3.5938049778767165 7.1425697807832735 1.4356610043833675 9 87 142
3.4714619969639093 7.147759419261415 1.4389585553379154 9 88 118
3.742789740103357 7.11103589464582 1.424884651029688 9 88 173
3.897181833551137 7.117536567360493 1.4143548200623486 9 88 196
3.5274881539987897 7.141446107682565 1.4319299516389272 9 89 130
3.497955478887273 7.137915796535037 1.4302330333724609 9 90 125
3.537679573673252 7.129552540579484 1.4283498643000807 9 90 134
3.7252461855147043 7.1182862867092656 1.4168133020290474 9 90 169
3.9455760544862395 7.118338500082178 1.402016528313141 9 90 203
3.475022990771156 7.141432136659832 1.4275017030745203 9 91 120
3.508088593197969 7.132158821222497 1.4261121102884142 9 91 128
3.5846977289643167 7.1341504809407486 1.4206728707791298 9 91 142
3.712015111768253 7.117366936229523 1.4135331747719593 9 91 167
3.404522488557867 7.140511790840846 1.4285749195641446 9 92 106
3.7400665197373293 7.115446591668574 1.407494528812002 9 92 172
3.80079786544691 7.113902282141561 1.4033936728372762 9 92 182
3.856165482039738 7.1173342830283515 1.3991933202659164 9 92 190
3.8678596869883024 7.1097690449710065 1.3990969568826914 9 92 193
3.4268821971284735 7.150389122125692 1.4221781846305785 9 93 109
3.5592391229233087 7.124930425277895 1.4151831083133257 9 93 139
3.591021047335257 7.141778692002759 1.4112938032346216 9 93 142
3.4723261767484765 7.145556407980681 1.4154451550080016 9 94 119
3.747335748063356 7.123184897058312 1.3976038963489388 9 94 172
3.856757009865778 7.106007816416982 1.3913085651574246 9 94 192
3.5162348424284815 7.13120762873835 1.4096328627066554 9 95 130
3.7786638597784195 7.117646005617821 1.3914924249488283 9 95 178
3.4158716597243743 7.138566707013398 1.412478870954187 9 96 109
3.7592019438890523 7.117166500021869 1.3886365315599032 9 96 175
3.821746632037884 7.110347576636336 1.3845815907308134 9 96 186
3.882872884424344 7.105904283243021 1.3803992583321234 9 96 196
3.914767534838601 7.116442319867374 1.376947235650789 9 96 199
3.5184470956157012 7.134950703592499 1.3970248674908623 9 98 130
3.8461131133023643 7.109179411036058 1.373913065602346 9 98 190
3.8950549722159162 7.105063400010087 1.3704877593505884 9 98 198
3.4256423215714027 7.14588461816462 1.3992927778082962 9 99 110
3.438097842421597 7.148964377964135 1.397986138478847 9 99 112
3.481320355883754 7.146400131678879 1.3947943385660144 9 99 121
3.533638108721464 7.134588578235327 1.3918130243186388 9 99 133
3.7872819130059465 7.114771718820547 1.3735656251861563 9 99 180
3.801048204306499 7.109670552722239 1.372983077533533 9 99 183
3.51470295134718 7.155459451914318 1.3871584298855728 9 100 126
3.5360121540900273 7.155659140367309 1.3854060678530282 9 100 130
3.5546165625499215 7.140451003178046 1.3854475077085628 9 100 136
3.408935859074443 7.144422985148914 1.3929850725636193 9 101 107
3.8090338008652056 7.123930614659896 1.3620072382638813 9 101 182
3.835099651850345 7.124112700314821 1.3598328031244802 9 101 186
3.9028521046113265 7.100308313800589 1.3566815209429572 9 101 200
3.4506360615759335 7.1415318455931995 1.3858752775190444 9 102 116
3.4694595168920257 7.139877777607041 1.3844635066282522 9 102 120
3.4968402041453595 7.141814520933699 1.3819589232231366 9 102 125
3.7569104063354706 7.116480866956671 1.3627111152102 9 102 175
3.7353259706820077 7.113720512086622 1.3604673684320672 9 103 172
3.8464387714577715 7.116700024282689 1.3506492934375198 9 103 189
3.9218176557351216 7.117829504625688 1.3440820941765979 9 103 200
3.9276323984862365 7.098139828064592 1.3456462587699551 9 103 204
3.3762138780025506 7.141247078195667 1.38444661202974 9 104 101
3.443504014131374 7.145902242079549 1.3781021621190903 9 104 114
3.505094369940452 7.146180208179211 1.3727155473935178 9 104 126
3.7611274987613412 7.12114769196956 1.3530876098921503 9 104 175
3.776241510227363 7.1236815110687255 1.351505489145954 9 104 177
3.866996188223904 7.098982730794553 1.3462186276430044 9 104 195
3.4044433533888783 7.140943286317034 1.3781165672298028 9 105 107
3.708864767992069 7.112152814061249 1.35426552358521 9 105 168
3.5062978472086286 7.142430074071443 1.3648946209883885 9 106 127
3.5547051515048977 7.124929747578652 1.3624227076050448 9 106 139
3.8285468696675657 7.1252124139091855 1.3377890930533094 9 106 185
3.923063376412864 7.082140608764135 1.3339175214786154 9 106 206
3.3694749235396 7.134442845666505 1.3741838950885035 9 107 101
3.419370565824078 7.148164443054394 1.3681458328967095 9 107 109
3.4338561607504117 7.147729412725422 1.3668706423054247 9 107 112
3.7049005206495202 7.108740533635413 1.3463456977357486 9 107 168
3.840650612500429 7.099784850684588 1.334922920026295 9 107 191
3.8684434586303134 7.10088783478103 1.3322667614373405 9 107 195
3.890070511059625 7.108346787742269 1.3294861708695562 9 107 197
3.9125442429863493 7.116373026345041 1.326566958688169 9 107 199
3.5032618700473233 7.1398183279961644 1.3573290752162142 9 108 127
3.7605502722988735 7.1216342551255085 1.3354564599443757 9 108 175
3.8235980604752693 7.127159593642687 1.3290088560415345 9 108 184
3.9365649605614474 7.100670357696771 1.321422043508155 9 108 205
3.514102960444637 7.140620124294109 1.3521537200018208 9 109 129
3.3940497733584993 7.148559360201395 1.3586630668736843 9 110 104
3.4380482322806603 7.142253518522715 1.3551552688926884 9 110 114
3.590149449352909 7.141191700050726 1.3407333217383002 9 110 143
3.766298184794327 7.121655535790028 1.3260577522290096 9 110 176
3.786817697754654 7.117016930401217 1.3246097652146165 9 110 180
3.814980316125468 7.119396742455269 1.3216542315489797 9 110 184
3.847863805415677 7.125760829384725 1.317806368338601 9 110 188
3.9072336758567263 7.112259692822293 1.30899097743875 9 111 199
3.928586922082656 7.100265169694797 1.308257142152271 9 111 204
3.7149440441246693 7.12027886758772 1.322384693198146 9 112 168
3.870196176615487 7.109674593214479 1.3082884975941305 9 112 194
3.9626554450668943 7.099324816566456 1.3003471723672473 9 112 209
3.4304871101834875 7.134665673693596 1.3448022970576106 9 113 114
3.507309478329739 7.134590573212679 1.337134823325093 9 113 129
3.808755889354202 7.1203384478730305 1.308629258627589 9 113 183
3.8164735910673637 7.115325736276574 1.3084259743307332 9 113 185
3.9007508114103344 7.10672184715208 1.3009797933140532 9 113 199
3.7317875240694693 7.125482566360554 1.3113278039902587 9 114 170
3.7447674387618495 7.107697880265951 1.3120421664383326 9 114 175
3.493701759806553 7.131893000465887 1.330654090481016 9 115 127
3.52766923361626 7.122425497012832 1.3282506823548548 9 115 135
3.703757999260069 7.115989659868935 1.3108867633798706 9 115 167
3.841448907155783 7.114586402152831 1.2968918176138757 9 115 189
3.94339084093904 7.107852027746171 1.2871854494948332 9 115 205
3.404367896582653 7.14635359578875 1.3342121766681974 9 116 107
3.423624461593833 7.133849309015057 1.3336534062660557 9 116 113
3.460281268348646 7.147494752724435 1.328250304099019 9 116 118
3.5706576977724485 7.140357282112367 1.31756930642549 9 116 140
3.8743000202360642 7.101790363674426 1.2903799689013087 9 116 196
3.499728195022364 7.145697515164553 1.320239704008617 9 117 126
3.7109697069838905 7.111614192931045 1.3018876706896891 9 117 169
3.9724435842005503 7.096023276485098 1.2760665426372204 9 117 211
3.421314440402009 7.143983297335826 1.3247336102669065 9 118 111
3.5056666346991863 7.134853330900853 1.3167676767065843 9 118 129
3.7720246105741038 7.11082656176334 1.2910488730847902 9 118 179
3.89717718054828 7.104367079954101 1.2783964333479512 9 118 199
3.54281569469908 7.128897087605557 1.3093229668122488 9 119 137
3.7508651013145817 7.1273686774230995 1.2869054768932084 9 119 173
3.7995158793271533 7.112905183122844 1.2833346006253432 9 119 183
3.856979404515524 7.1112779464628275 1.277285638183416 9 119 192
3.931725191215621 7.104359125142128 1.2699864008093689 9 119 204
3.441780231173821 7.145491752444346 1.3142950114648342 9 120 115
3.4892747734668927 7.128984533441669 1.3110370425140685 9 120 127
3.7734005274162015 7.112920513046362 1.2771817523379982 9 121 179
3.775831986361005 7.102942013958657 1.2781101727989777 9 121 181
3.4770112025615005 7.145781293854215 1.3021914276401143 9 122 122
3.5038819254583276 7.116518115816034 1.3026986693266225 9 122 132
3.5621009092879303 7.127225676998696 1.294823540318411 9 122 141
3.5397504590635642 7.121458384677963 1.2896955558181644 9 124 138
3.409217218733016 7.138810839614458 1.2986882116748328 9 125 110
3.444343455985094 7.138898983065882 1.294553929738602 9 125 117
3.5193757067614726 7.123214293552681 1.2876865009291436 9 125 134
3.798722045530252 7.101174723662239 1.257621360132063 9 125 185
3.4310333091843326 7.130043079747034 1.2891337199776447 9 127 116
3.4734410767540203 7.119826092825034 1.2853129543033917 9 127 126
3.5248773333479613 7.112141650836362 1.2800880967258679 9 127 137
3.4032206951065707 7.1455384226929635 1.282492748064085 9 129 108
3.4731003957914712 7.132338003001669 1.2755582898092015 9 129 124
3.415317330230147 7.143174542569744 1.2732078518286292 9 131 111
3.5234762731687654 7.130309978037537 1.2612156129061685 9 131 134
3.5594413760167924 7.116054475810145 1.2542711662388621 9 132 143
3.418826861236222 7.130828280317441 1.2621955879712257 9 134 114
3.5720368041663155 7.126030071102806 1.2256300398087427 9 138 144
3.7907706118533295 7.098495017255329 1.1624373334331826 9 146 185
3.8234335327472277 7.0870730908981034 1.126229552294205 9 153 192
3.6673786679932805 7.100041453840826 1.0992238323793417 9 164 166
3.6812645246784252 7.101710299764444 1.0965155572407812 9 164 168
3.8905868755778283 7.081421051403072 1.0580032893692823 9 165 203
3.6703411455177957 7.109941389796001 1.0879550149039359 9 166 165
3.721159470797928 7.092523336133487 1.076993005740941 9 167 176
3.797584239946954 7.05377514662476 1.0599465879031948 9 169 194
3.7458628182156413 7.006062867321839 1.0679623799016824 9 171 194
4.055469829735117 6.911313071270816 1.025780661100531 9 171 252
4.045430077772094 6.922129989889126 1.005695322398508 9 175 249
3.9584974602108507 7.098571635951632 0.9875910446078767 9 176 210
4.047108799747793 7.0440341033897305 0.9692395970483472 9 178 230
4.040475580264799 7.000026546595358 0.9781054806111363 9 178 236
4.052463270001192 6.927475314070199 0.9779945300396033 9 180 249
4.0593914049948605 6.9769400955065155 0.9628545534124445 9 181 242
4.043515422454854 6.889709361100493 0.9812873984102025 9 181 254
4.054577799748945 6.985950074417652 0.9467210673310962 9 184 240
4.043844981031074 7.028831227775621 0.936126359683956 9 185 232
4.055609811317341 6.974087637094541 0.927842602121786 9 188 242
4.046591161949296 6.904203842157076 0.942421677048284 9 188 252
4.020150760783621 6.859721428010875 0.9561199887942091 9 188 256
4.020635712567375 6.841911440426109 0.9592413695770776 9 188 259
4.054194700363799 7.005063739870339 0.9173002397489821 9 189 237
4.052747043405478 6.933878345622171 0.9305686835192184 9 189 248
4.062359915910164 6.953935800667599 0.9196440662367851 9 190 246
4.0382065510544525 6.854806609153989 0.9430138570962718 9 190 259
4.046096217999207 6.891326986761928 0.9243603780924452 9 192 254
4.019518986951185 6.822808473543969 0.9428693075373802 9 192 262
4.066093894648983 6.982428375468001 0.8978632841533913 9 193 242
4.059427399261004 6.938996615535199 0.9074098271611983 9 193 248
4.059586785061997 6.92020514524247 0.9056698648916224 9 194 251
3.5148670374276327 6.811830326586434 1.0431569280229946 9 195 191
3.478620478874883 6.927971463895201 1.0252077477619377 9 196 164
3.470389665663988 6.885384745544118 1.0351050524061869 9 196 170
4.0559873260389665 6.917427204487884 0.896595339303819 9 196 251
3.483875565240591 6.848713033037802 1.0347487236081059 9 197 179
4.0624141751675715 6.998972585081207 0.874458880032104 9 197 239
4.050169783591453 6.888029084769408 0.8982877649890304 9 197 255
4.050857116651867 6.869976984532233 0.9015546225685219 9 197 258
4.0312249785280905 6.8371317836548124 0.9122557619225482 9 197 261
3.468751883995415 6.901258628159284 1.0239724876410443 9 198 167
4.057845405722188 6.982457926241553 0.873351649809942 9 198 241
4.048057354422157 6.867808410902696 0.8922884618645703 9 199 258
3.4753437424351192 6.925792589146345 1.009186178470447 9 200 164
3.4769522559729196 6.853750279414123 1.0226816099837805 9 200 177
3.498496898230649 6.808295173699594 1.0264207916141905 9 200 189
3.559378669475531 6.760683201319438 1.0214243576539142 9 200 208
4.041464387571259 6.918819686578646 0.8736214509961289 9 201 249
4.047254559384612 6.854803018674666 0.8846512694254205 9 201 260
4.033853679602216 6.826673436309786 0.8932328350216586 9 201 263
3.485871095680567 6.84629210218464 1.0135419514987514 9 202 180
3.5485340767258924 6.767549011341351 1.014074087074393 9 202 205
4.048066759869866 6.949228848650485 0.8609321739354837 9 202 245
3.531625782096608 6.768711318460117 1.0135783042269275 9 203 202
3.4590217079241037 6.898705928776317 1.0011458970888105 9 204 166
3.498805663836985 6.798424021348193 1.0113271364966239 9 204 191
4.042933103156383 6.9452434335958735 0.8524037656664317 9 204 245
4.042926132630733 6.833085211418027 0.8744305574494737 9 204 263
3.5212082314837403 6.781428770191538 1.000775178231716 9 206 198
4.0362129009306535 6.908454379569209 0.850786823315451 9 206 250
4.019142354585999 6.821632305343964 0.8670189276405582 9 207 262
3.4645764400282513 6.922841575865312 0.9778092198579781 9 208 163
3.523826093662585 6.773261110865195 0.9932126597046731 9 208 200
3.5510553691005837 6.749057595692033 0.9870696904368976 9 209 209
4.020822010032031 6.828819394065832 0.8548933631684495 9 209 261
3.4522211736149773 6.865188927758905 0.9838729213989048 9 210 171
4.028755634857928 6.908976041391213 0.8315602560350432 9 210 249
4.0339552715123785 6.86302106658999 0.8395583068894064 9 210 257
3.4677998970805524 6.830703136981667 0.9827116135169746 9 211 180
3.548302362288621 6.747006752244336 0.9752402992482866 9 212 209
4.021901289982723 6.787063075957804 0.847670689739367 9 212 268
3.469668567829685 6.816382874599125 0.9766430103236095 9 213 183
3.479357771145921 6.792720301485309 0.9790382643029298 9 213 189
4.031535739268724 6.854910295481837 0.8261766072554775 9 213 258
3.4978404906514284 6.7775416448893875 0.9731907042127075 9 214 195
4.046688893241762 6.922690210636814 0.803116192634554 9 214 249
4.035987825965637 6.901846090979355 0.8048635919021447 9 215 251
4.03561042269069 6.876489402338283 0.8102114358243646 9 215 255
4.027378284358999 6.827161066515055 0.8225420604881348 9 215 262
3.45441003001086 6.835382552880274 0.963830444154439 9 216 177
3.52852799659873 6.73536503346245 0.9654692894924262 9 216 208
4.0190574469665155 6.784530697664044 0.8180527494893877 9 218 268
4.029253835264877 6.834427036908782 0.7996712498518173 9 219 261
4.022474761464694 6.8050466254682025 0.8076577045860664 9 219 265
4.02116101412609 6.809967935238259 0.7913440679904425 9 222 264
4.034174322514295 6.906647392053895 0.7618249200474786 9 223 250
4.018624621145722 6.857220161274062 0.7713814296155176 9 224 256
4.014082951158795 6.835297173931004 0.7773504456161092 9 224 259
4.026447060763198 6.807474499304982 0.7747568678622208 9 225 265
4.022768743375722 6.904213846986082 0.7494388320845936 9 226 249
4.019594359906069 6.766053212913681 0.7752210893406313 9 227 271
4.007724628672282 6.830399771125295 0.7591673620617938 9 228 259
4.019405190429879 6.783763957205105 0.7556989364150781 9 230 268
3.9900758874595623 6.829473268845497 0.7485794805198375 9 231 257
3.988146850674298 6.8403077492375015 0.7414541860554578 9 232 255
3.999040221702616 6.787179143865406 0.7502439058853347 9 232 265
4.0117290358652395 6.742059274621342 0.756728184524441 9 232 274
3.983748810092856 6.855504455881416 0.7287553954691086 9 234 252
3.98209680836362 6.768717967896487 0.7436442947855344 9 235 266
3.9795418084704504 6.833717697585471 0.7243718668018627 9 236 255
3.9855314157715584 6.717474376276423 0.7491198229368337 9 236 275
3.956369588256446 6.798030704576599 0.728874385731027 9 238 258
3.9683714076105363 6.770614460638426 0.7316344969771977 9 238 264
3.9597789408565314 6.728637754345462 0.7386805261811921 9 239 270
3.9742856606825963 6.786854253356427 0.7156909609257947 9 240 262
3.9566241574319543 6.708672979081932 0.7391031626474329 9 240 273
3.9780037986014216 6.844774715381443 0.695837457204519 9 241 253
3.9509997435351787 6.698691535092136 0.7328666788451589 9 242 274
3.9677953996088116 6.663608197183279 0.730883266233643 9 243 282
3.980538319780209 6.815662906599691 0.6859734515998255 9 244 258
3.985908453819126 6.8012038059844215 0.6877457235845612 9 244 261
3.968480653098987 6.770276941243916 0.7003701130200488 9 244 264
3.9857282889067025 6.825597192999346 0.6713799070782653 9 246 257
3.9540957970964286 6.676965739460249 0.711401623137137 9 247 278
3.9928601002798336 6.812226580355826 0.6616717360808215 9 248 260
3.9699809061156612 6.647052890320486 0.7084796622737839 9 248 285
3.9869546556338595 6.777128743054785 0.6613198060864232 9 250 265
3.9811576614942825 6.846886344910361 0.6408729736078715 9 251 253
3.9782426276135583 6.746596855591411 0.666188482655232 9 251 269
3.961777507491245 6.652681044567677 0.6942560772054691 9 251 283
3.996262366878369 6.81450593047434 0.6385679595293658 9 252 260
3.978551222669726 6.722757092376491 0.6666289446131464 9 252 273
3.9707666990529873 6.699552560489094 0.6747810156656004 9 252 276
3.9630303274937404 6.641837559274376 0.6913459862845608 9 252 285
3.9939403026772347 6.84391338765246 0.6267097756321416 9 253 255
3.96052200751073 6.622812472205631 0.6916607573415972 9 253 288
3.9642035328596603 6.694791668190527 0.6676064894225007 9 254 276
3.999201002467118 6.822726088427746 0.6193867869400498 9 255 259
3.986773970883684 6.776623786814826 0.634819873198591 9 255 265
3.969352207183739 6.881896945260655 0.60900017735448 9 256 246
3.951890999772885 6.680088156251732 0.659609777898353 9 257 277
3.96239489948917 6.669720425233463 0.6587514944645105 9 257 280
3.9700701296002716 6.740168253804257 0.6333621380788252 9 258 269
3.9618738173644044 6.640184459771791 0.6611014016823709 9 258 285
3.970785169795414 6.807729059512504 0.6108251465357082 9 259 258
3.958335879727302 6.684279555335926 0.645992101231847 9 259 277
3.965874544865013 6.841354305713009 0.5985805716590089 9 260 252
3.9624440423585594 6.820061795835502 0.6050994185444125 9 260 255
3.9899632831030716 6.77233234265146 0.6025912141094898 9 261 266
3.9641491135639204 6.723697709451096 0.6235647255637538 9 261 271
3.9679870538331667 6.638010007647983 0.644004517431191 9 261 286
3.9656491154774427 6.860016933442502 0.5830510774768096 9 262 249
3.9672859560290283 6.743865619706897 0.6120695129136056 9 262 268
3.9393771118217753 6.6825982052173485 0.6370596807086257 9 262 275
3.9609217161177614 6.615912173534488 0.6467853188714183 9 262 289
3.9679144202949317 6.836556703361787 0.5828245452664884 9 263 253
3.9597140557945383 6.817909745915833 0.5903652812636524 9 263 255
3.9557137252418086 6.711502425565287 0.6136264688636619 9 264 272
3.968760651141171 6.824616689926302 0.5747175666249218 9 265 255
3.963317805296603 6.663300340896358 0.6128817360734651 9 266 281
3.9792875775882237 6.8073569777508265 0.5592026652795603 9 268 259
3.9494551214877482 6.706710593343967 0.5958106614959726 9 268 272
3.9673041285395727 6.773787774246015 0.5667053567061742 9 269 263
3.972001045416458 6.8018780187764385 0.5522517913213085 9 270 259
3.9642502916714575 6.728910921988492 0.5741564064139357 9 270 270
3.961303339411032 6.626411029692771 0.6021426934297556 9 270 287
3.9745434892424165 6.860365608430513 0.5304490977899488 9 271 250
3.967570702117876 6.653737264641996 0.5874582548608704 9 271 283
3.9728420012775683 6.78996878728063 0.5441725160795146 9 272 261
3.9745317691719952 6.72991612544749 0.5594920808716766 9 272 271
3.962509078913041 6.598054726407265 0.5987017245600401 9 272 292
3.971296817087904 6.896317092252248 0.5109516793963313 9 273 244
3.9670072764963518 6.835594859254445 0.5286379332062234 9 273 253
3.9430681099361733 6.689840277586292 0.5759465669771251 9 273 274
3.9689238871067487 6.793182451467375 0.5337699882331861 9 274 260
3.9642161313574653 6.651059177531355 0.573426552935242 9 274 283
3.9766447042456154 6.725035612252286 0.5437944762994382 9 275 272
3.959823202591492 6.792582981208501 0.5262512612788397 9 276 259
3.9670195862866975 6.646773693732568 0.5629185512916819 9 276 284
3.9505580118323786 6.767217221687541 0.5309945808846463 9 277 262
3.9549225694445216 6.75812526102178 0.5318683835257605 9 277 264
3.9502499233424158 6.618026558714163 0.5714423286088437 9 277 287
3.967432123165788 6.594596113132969 0.5715399214949917 9 277 293
3.9546133583003615 6.60916866830021 0.5669723431079867 9 278 289
3.9675956736083875 6.712241651193903 0.5288386550371802 9 279 273
3.9658634643945088 6.669037525022769 0.5358674160135974 9 280 280
3.964804697304767 6.710079882759259 0.5196015724464376 9 281 273
3.9382865531225946 6.60920280044814 0.5465534389478097 9 283 287
3.9615943309997097 6.653760537062256 0.5201263474004352 9 284 282
3.9456390225317377 6.590457321095609 0.5331098599547928 9 286 291
3.9641444938519603 6.579150219139089 0.5239297153393336 9 287 295
3.936465771928803 6.554536647829398 0.5044157701938992 9 294 296
3.9139266837880595 6.413876615597857 0.3328325443170508 9 336 317
3.908540200370829 6.471124359765153 0.2997060948232333 9 339 306
3.929134113236859 6.460620088390178 0.28789279800129197 9 340 310
3.8831420953482856 6.46096037303324 0.3044126247728127 9 341 305
3.921273672568792 6.427799279188935 0.29735353439331424 9 341 315
3.8289914376203873 6.44968465623544 0.3236883327605906 9 343 301
3.928047898589642 6.4592242086101965 0.2722703676533986 9 343 310
3.894052270517928 6.466856119146776 0.28066966446462294 9 344 305
3.919602707031878 6.414117848723704 0.26989022372781113 9 347 317
3.758263759250898 6.453573139097812 0.33056239608143945 9 348 292
3.911922001727488 6.437244963836393 0.26009494012989065 9 348 312
3.922950879699785 6.437548301969679 0.24339547573534825 9 350 313
3.919106090043908 6.457582410014433 0.23267448099863985 9 351 309
3.714763697779107 6.468108844306162 0.32625820629441993 9 352 284
3.786519757379197 6.432557929903884 0.3027166849767893 9 352 299
3.853226685053981 6.451270685939291 0.25702199450572927 9 353 303
3.9079056759583404 6.378298266569545 0.25531847228233406 9 353 322
3.7804856691838657 6.444749880030955 0.29079315506990655 9 354 296
3.6868169565975 6.459944216961318 0.32775293776922987 9 355 282
3.7596367441023437 6.447767167687561 0.2950046090080547 9 355 293
3.9159722767316776 6.398743021633807 0.23288642605864984 9 355 319
3.7486921128851156 6.45132797818772 0.2887301304653298 9 357 291
3.8727529068530515 6.45099727672662 0.22514001763112335 9 357 305
3.905933573301698 6.442649962727176 0.21110773062079247 9 357 310
3.8991886140155554 6.421901457463718 0.22204599272532466 9 357 313
3.6953451352296187 6.448721316743354 0.30147072274752373 9 360 285
