0.47055922564500574 5.124064338237164 0.21040141629257114 9 53 35
0.4814275412413451 5.121684195487948 0.20101533140869332 9 57 37
0.4860072628444103 5.1193342301067775 0.19239551451443604 9 60 38
0.46516898879238555 5.125492095034166 0.17028627812520725 9 62 39
0.48006185517342903 5.081222408007563 0.19239991423660507 9 64 27
0.47293384513343306 5.1300240750878645 0.16373007705294773 9 64 42
0.4755996571221184 5.085649717439124 0.17962115501536058 9 66 29
0.4850216413390531 5.126958536907808 0.16332597196956056 9 66 43
0.45847139686946714 5.118753301316081 0.14516060251861518 9 68 39
0.4766676137790109 5.090338215986709 0.1653769776172056 9 69 32
0.4708446153378387 5.0925484722895735 0.13588721935559245 9 75 35
0.47083708462496077 5.072788048525519 0.11651328130779581 9 82 32
0.47183753769101666 5.07269730007903 0.10846244266038618 9 84 33
0.5105728474568758 5.08638230368631 0.1183013492602698 9 85 41
0.4936691397356454 5.041135598910474 0.1251076819920096 9 87 26
0.4828995382321244 5.04996749931167 0.10548080736347698 9 89 29
0.545787262365212 5.072967112735128 0.12409194242112309 9 90 42
0.5001080191126843 5.039738003023621 0.11229876681808326 9 91 28
0.5105053365833623 5.055708120271773 0.10929809499926613 9 91 34
0.4923877250217896 5.015680073416696 0.11704707956384008 9 92 20
0.5106127637468989 5.023614593239385 0.11441099144678168 9 94 25
0.5176359105046779 5.006964396175744 0.11928383580360746 9 96 21
0.507711797734576 5.025848402963686 0.09839756521749399 9 97 27
0.5237163572743837 5.028201021684958 0.10637649050419884 9 97 29
0.549239845797973 5.055712343252434 0.1055296277346105 9 97 40
0.5852968789444617 5.037617822523818 0.12832603307771095 9 99 38
0.5642823507179884 5.0247485364876 0.11477208492529756 9 101 33
0.6081688996039021 5.038048255924955 0.13297324903057817 9 101 41
0.5574474254161625 4.975877070110053 0.12191530848517096 9 105 18
0.5641364700351725 4.980280873980817 0.12333090449574868 9 105 20
0.5928675658963423 4.9928903244585205 0.11155347061808829 9 110 29
0.5974415225328684 5.000713854053822 0.10966460511739173 9 110 32
0.6120156501458007 5.015139424261276 0.10991424503154645 9 110 38
0.5949428782408854 4.954529877917109 0.11851305194287076 9 114 18
0.6305884749320203 5.013812502585788 0.10460498612083935 9 114 41
0.6137652980279373 4.995509826573458 0.10093229345383148 9 115 34
0.6443643573780922 5.016529083681724 0.10270193350154888 9 116 44
0.6256652694894158 4.955134994870797 0.1241933956174619 9 117 22
0.6786991208557933 5.018478956715006 0.11847093707487133 9 117 48
0.6616862827006034 4.996245564673178 0.1040455371715554 9 121 41
0.6312847626235896 4.940857707928563 0.11485005297347417 9 122 20
0.6435737266690984 4.94819724248239 0.11370935068474552 9 123 24
0.666112854244419 4.966213080927766 0.11677303784758863 9 123 32
0.7615723918227508 5.084313742439162 0.10368147952128881 9 123 80
0.7816300855302398 5.084834743396389 0.10733469272295348 9 125 83
0.6504175767942808 4.9239920387045455 0.11585260734307035 9 127 18
0.6663757681327582 4.94457683345779 0.10872504376047432 9 128 27
0.7143905613497674 4.982529727320611 0.11561926438686387 9 128 44
0.683612262213996 4.953655758232585 0.10971090174262343 9 129 32
0.7666069524827854 5.044297796283893 0.10572693101699371 9 129 70
0.8002934519747569 5.0617159723499485 0.11643938793745412 9 129 79
0.7214913169754875 4.960928415097238 0.12527046710054224 9 130 38
0.6776648548351147 4.912812167456925 0.12321592763993583 9 131 18
0.720017992543144 4.976946647051116 0.10970761265014284 9 131 44
0.7874457956836327 5.044744829785172 0.11018483294566628 9 131 73
0.6808227524806165 4.92860780263446 0.10639065744247289 9 133 25
0.8191622317352585 5.058667583504058 0.10880255690632135 9 134 82
0.7138971185939507 4.932918075981657 0.11659611807914017 9 135 30
0.7003259315639205 4.901138334528367 0.12394677608942528 9 136 18
0.8412813073296586 5.058473057603657 0.11474934399426884 9 136 85
0.8628395616457558 5.0734944092988865 0.11046799463367507 9 138 93
0.7242889104736838 4.900366482793598 0.12738333169128913 9 139 21
0.7336565580278216 4.914849433625092 0.12411277320218295 9 139 27
0.7456790113312257 4.9371709190101685 0.11745667210304012 9 139 36
0.8297231270832381 5.019316270501415 0.1195824161923622 9 139 72
0.8470750613910187 5.019325100957209 0.11811808516341427 9 142 75
0.8797368766193903 5.066162226683946 0.10902660434467326 9 142 94
0.8765472756704313 5.044859153529825 0.11666331250662809 9 143 87
0.7413943831143737 4.90331646542399 0.11515455729051527 9 144 26
0.8631519104890653 5.010928904236964 0.12151727687373115 9 145 75
0.9266399155557656 5.076328448376086 0.11649743585834438 9 146 104
0.7610622932490658 4.885722880645387 0.12297435435689263 9 148 23
0.8751038364498429 5.009800573346732 0.1085034839320278 9 150 78
0.9077762669406193 5.053367738323921 0.10138772165882415 9 150 96
0.901264343199951 5.0172652791287105 0.11274771881007584 9 152 84
0.9437516379439468 5.066437195577887 0.10857637674716414 9 152 105
0.7801965224443164 4.877593309940178 0.11994887847864599 9 153 24
0.9654124627699741 5.0852776662423205 0.10629954828759969 9 153 114
0.8462499924001352 4.946494281539045 0.11424374802246384 9 154 55
0.8879045864230966 5.003930729033547 0.10372578799246224 9 154 79
0.9276347763840422 5.039204267675347 0.1072142325562504 9 154 95
0.9530408819493703 5.062766741731167 0.10430061015616676 9 155 106
0.9723601850899262 5.073233687014847 0.10620696694676246 9 156 112
0.7813241425500372 4.8583891931025995 0.11650762033132844 9 157 19
0.8331300906576393 4.909667071370033 0.11739500328705366 9 157 42
0.9410688583105709 5.033049779146159 0.10320402035003107 9 158 96
0.8773051612217111 4.93524164115635 0.12209806312534677 9 159 56
1.0029429926855402 5.067075713301975 0.11455415923081924 9 160 115
0.8386343150125151 4.902882567345918 0.10840457600293707 9 161 42
0.8353860035410903 4.911658417264494 0.0998370369170698 9 161 45
0.9364310775871956 5.003101837819237 0.10318853835734454 9 162 87
0.8757231725976444 4.916544451195816 0.11658538901537718 9 163 51
0.8848925142290138 4.92263438692122 0.11887664475989657 9 163 54
1.0252023725790516 5.078850638325912 0.10441950048752613 9 164 123
0.8967749801539218 4.925363521640283 0.11670997248023207 9 165 57
0.993932540373633 5.034419530289842 0.10909837711844417 9 165 105
1.0111461873004859 5.052449206015166 0.10867967311788829 9 165 113
0.8828663360532882 4.89224411180726 0.12600828862308466 9 166 44
0.9716839780528352 5.013799151189742 0.10323420010190731 9 166 96
0.9908493060954393 5.018350397149143 0.1095188200076278 9 167 100
1.0342094315907082 5.069168911243247 0.1045365287303992 9 167 122
0.905504040490839 4.917953493735295 0.11070869325976873 9 169 57
1.0387138687764113 5.0551239659537615 0.10462695148320611 9 170 119
0.8941666634975358 4.87520453403703 0.12472124492618653 9 171 41
0.9615998485497936 4.970362915217222 0.10500128643145623 9 171 82
0.9742170708853717 4.9838311982137595 0.10449763154157665 9 171 88
0.9931364600274426 4.983213087165091 0.10562934426619197 9 174 91
1.0338671674641489 5.022554681409154 0.10705003281359904 9 174 109
1.0516001207657555 5.034263612131281 0.1116916005126507 9 174 115
1.008346577419148 4.988927475467737 0.1083438351834849 9 175 95
1.021631483600363 5.0020769655714545 0.10857139205184163 9 175 101
1.0680684895297397 5.0422089491539 0.11371102142072087 9 175 120
0.9855696684390498 4.968705406535828 0.1017192253408461 9 176 86
1.0162204588376869 4.995534756903603 0.1003539883027782 9 177 99
1.08904126437835 5.041476171194663 0.12120693634228852 9 177 123
1.078108073915252 5.021997334810996 0.10512772888929689 9 182 117
1.043422052628156 4.971758603736453 0.11218392696840862 9 183 96
1.06085554433335 4.991883418437622 0.11028522184530032 9 183 105
1.0779073781558854 5.0053070444221515 0.10871646886505926 9 184 112
1.017652209741649 4.943164041465925 0.10508904183305856 9 185 84
1.0720450552761878 4.979288858488003 0.11519266194531763 9 186 103
1.0595706346915388 4.961034045523233 0.11054901735992484 9 188 96
1.0938692683307607 4.997221861129248 0.10485687147224332 9 189 113
1.0992676041206502 5.002895108019477 0.10013673528512124 9 190 116
1.1125897635069475 5.008870052161351 0.10147057756755373 9 191 120
1.0914621991678324 4.965150177122216 0.11003181917348792 9 193 103
1.1268365191392284 5.010469085212773 0.1024653430434832 9 193 123
1.0683096763632067 4.929477284175515 0.1152395555616419 9 194 88
1.0716080653900926 4.9420908393434715 0.10785612212266815 9 194 93
1.1515775406326847 5.026854484494859 0.10476192316068533 9 194 132
1.1259122684934475 4.973867535176323 0.10817756223075237 9 198 112
0.9932206655256834 4.821900800699187 0.11350683387201466 9 200 43
1.1501429673798773 4.994763849152073 0.10193913603691684 9 200 123
1.178011714705345 5.019578975327091 0.10466740955914533 9 200 135
1.119252263252426 4.943603245622727 0.1090352690766021 9 202 102
1.1184393111282296 4.954749170331805 0.0992401399198366 9 202 106
1.144223736229533 4.9802707689095245 0.09968180077527622 9 202 118
1.0981553663229013 4.921187449127062 0.10535241787935679 9 203 92
1.1622537494888676 4.987384456592146 0.10418999074193946 9 203 123
1.183560098205469 5.005721631106342 0.1068153136698835 9 203 132
1.1989938995390632 5.012426343980414 0.10495735716938182 9 205 137
1.1158553115026826 4.914302846080293 0.1074806005561384 9 207 93
1.1326385281871014 4.926028076011825 0.10264040138680097 9 209 100
1.1873995366477206 4.976877926243369 0.10177220576926471 9 210 125
1.1286573845861738 4.898248948204708 0.11343503421355572 9 211 90
1.1593639728379261 4.940364914826338 0.1040568676787974 9 211 109
1.1720407801408252 4.950207323937563 0.10655959294912076 9 211 114
1.1423968489477705 4.89115014000701 0.11749184549785752 9 214 90
1.1569180454547883 4.904545983130343 0.10473811107456665 9 217 98
1.2177927239009483 4.9674702228593635 0.10347633442331627 9 217 128
1.199118402984607 4.942116174801779 0.10444598508650471 9 218 117
1.1899000903594195 4.915761652916956 0.10997774224644585 9 220 107
1.2115449053672647 4.9299608525788265 0.10271367177237845 9 223 116
1.1340408420678407 4.766943485228394 0.11852334232285866 9 236 50
1.1600290336591768 4.779699325317665 0.11697344973055679 9 239 59
1.169702445255555 4.786088912639933 0.11542331193727207 9 240 63
1.1071357036240548 4.6917133448221415 0.11683473743955419 9 246 21
1.1183521235783331 4.695008575367657 0.11032625100613225 9 249 25
1.1431730022486728 4.678750282869999 0.11745373826636007 9 256 23
1.1548837892644577 4.669256741082947 0.11003884195506042 9 262 23
1.1693632952900566 4.659931998007833 0.1200001686445138 9 265 21
1.1854657896609364 4.6503755688711115 0.11777078806689523 9 271 21
1.6489059952867147 4.536420409336799 0.09418632750416855 9 423 78
1.6556155099987828 4.5445261651570235 0.09134740453922041 9 423 83
1.702672085385994 4.586044431243017 0.09566640740855115 9 424 109
1.651044072125403 4.52488388823671 0.10183953763662035 9 426 73
1.757384764381903 4.628293573855189 0.09393290055773851 9 428 138
1.6806849071673913 4.545475259825827 0.10013036171130052 9 429 88
1.7148418163867947 4.57668979044942 0.09931797077061932 9 430 108
1.688031318931431 4.544722729887033 0.10341940578074782 9 431 89
1.7658259380523667 4.622907093739922 0.09540824181738095 9 432 138
1.7889564856558469 4.643919223759256 0.09978077711225475 9 432 151
1.6996254735602838 4.540242744185397 0.09627041144878024 9 437 91
1.7830901131157897 4.6210130332729005 0.10169730381084441 9 437 141
1.8030347195596308 4.628650957585964 0.10050935075609768 9 441 149
1.7165078105794804 4.539087634112511 0.1006592720027717 9 442 94
1.7301168808127878 4.553460267091964 0.0988832601730456 9 442 103
1.7177869647327666 4.527778180184293 0.10763055087687401 9 445 89
1.8070152672158422 4.621885808202481 0.09605849416287482 9 445 148
1.7511053182402985 4.561322671289118 0.09977286281576458 9 446 111
1.7437941684254894 4.543369710999614 0.10260805637513615 9 449 102
1.7651199896626202 4.5513621729303795 0.09715561155504115 9 454 111
1.8186187543845131 4.600928349403018 0.09874248845924827 9 455 143
1.8295134889847817 4.609180239250391 0.09756526349513983 9 456 149
1.7552534097152468 4.527660751164421 0.10819378313993777 9 457 98
1.7613464502406326 4.5353846329071645 0.09673412746455545 9 458 104
1.7738151818744867 4.545200327318468 0.09558701565746142 9 459 111
1.7802259656605786 4.533200787690502 0.10328097426625593 9 464 107
1.8493673012981735 4.605311447591013 0.09521614679338075 9 464 153
1.8562150039477823 4.610385770261434 0.09192042947552514 9 465 157
1.8633808943744623 4.616666008977283 0.09410075050273714 9 465 161
1.7685103817141674 4.516607356861241 0.10038834156869703 9 466 98
1.8615820493071977 4.589286488709111 0.09774644092229501 9 473 150
1.8762480963357522 4.602091611358372 0.09458056377082746 9 474 159
