0.5046486825108739 5.951419717849783 1.0471548961494854 9 7 61
0.5127208321595139 5.9693920955731 1.0389550550662334 9 7 70
0.6124660019844562 6.40723556890168 0.8290809117156684 9 10 205
0.5253235605579779 6.104474656621715 0.9643376897342972 9 12 115
0.7487757372213535 6.261468375748777 0.890988632738211 9 13 228
0.5113481022783186 5.987712765694102 1.01449116337912 9 14 78
0.5172815064100862 6.000693854635112 1.0037642255693497 9 16 85
0.7196121364731878 6.194168518869211 0.8882248081217476 9 26 209
0.7329177804368088 6.145099709194879 0.8893863728012286 9 35 207
0.7475003095730091 6.148406571535166 0.888040360409784 9 35 213
0.7082273522418685 6.1350058392352125 0.8834063710746872 9 39 197
0.7447247681186993 6.105175242078957 0.8868621385227279 9 44 206
0.7167272618436924 6.086450773890045 0.8934057386183316 9 45 192
0.7412524514342453 6.080034900619278 0.887146927166953 9 49 201
0.7738339450432352 6.088378331279646 0.883624399375901 9 49 215
0.710617214471877 6.045830383533503 0.8969930611795778 9 52 183
0.7324294436335079 6.046298800416414 0.8922809328555772 9 54 192
0.7924565919372555 6.079086414695512 0.8709628833661924 9 56 222
0.7564863070253451 6.039983510695314 0.8862539875464922 9 58 201
0.7687012898292642 6.0512436836449535 0.8803954486201071 9 58 208
0.7055057926611898 6.00122954983266 0.9035817394607575 9 59 173
0.7996763343772108 6.075428164253709 0.8626931078205746 9 60 225
0.7268210132143911 6.00167902000819 0.8990010177358625 9 61 182
0.7425081169320259 6.014631435225892 0.8922611403285317 9 61 191
0.7691812664862021 6.036651669147501 0.8808028930778213 9 61 206
0.6722182369008917 5.950450010245593 0.9185083548987393 9 64 149
0.7488027549896903 5.999629285379082 0.8933273277641471 9 64 191
0.6871475789410448 5.945620118831397 0.9193396056562063 9 65 154
0.7022291950843127 5.957449439067706 0.9131426529954365 9 65 163
0.7902308522502641 6.04094261273809 0.8687161388025313 9 65 216
0.7917435934125527 6.046985615090772 0.8626862290164751 9 66 218
0.7317016496434889 5.942351341141802 0.9155047380219044 9 68 172
0.7926851725934803 6.026077161158125 0.866897161589105 9 69 215
0.813047954904978 6.0474210012825775 0.8553234442201458 9 69 227
0.7497831607863702 5.946854947901018 0.9086585589586589 9 70 181
0.7709640746479032 5.99341575736339 0.8824153779172831 9 70 200
0.7210010778569704 5.920135272750942 0.9206196551168326 9 71 163
0.7585971435196008 5.9547886245513695 0.8993966174391366 9 72 187
0.7432462286409389 5.917291834817881 0.9183018898333446 9 73 172
0.7767746246029623 5.960934775832424 0.894020289869994 9 73 196
0.6942811446731325 5.904560768553932 0.9213370143535619 9 74 149
0.8162613608818103 6.034654138968596 0.8496468637123231 9 74 227
0.7865364670833928 5.986517956350852 0.8742365710830194 9 75 206
0.8012299276536244 6.02210337160019 0.8537845196465013 9 75 219
0.5594181860074001 5.992236513731556 0.8559080255870615 9 77 122
0.7800362139289208 5.9433625237348275 0.8894905447619501 9 79 195
0.6663163748922714 5.883879829743086 0.91776848985804 9 80 134
0.7257431185681545 5.882714365827234 0.9211064206067936 9 80 158
0.8016237600999379 5.995092578704904 0.856751292196075 9 80 215
0.6857583767375359 5.883012543000085 0.9167057585945577 9 81 142
0.7690450744827578 5.900985502918452 0.9095707902849643 9 81 181
0.7451005311290269 5.883903338701855 0.9163998742695778 9 82 167
0.7053589785763679 5.873290853340514 0.9186082433343885 9 83 148
0.8227322377439545 6.015636353847002 0.8372933896174339 9 83 228
0.7942453384020431 5.951904974735898 0.8722386404100574 9 84 204
0.6766109871467163 5.817228206867937 0.9467648590861024 9 85 120
0.7760361654606192 5.900656392770319 0.9002477882949687 9 85 185
0.7994925555901696 5.964131270496937 0.8624147505348072 9 85 209
0.7486907083783478 5.872185203710505 0.911567267546179 9 87 167
0.7660789333126308 5.8788465629823214 0.9082833713043827 9 87 176
0.5081991890771134 5.903823781717507 0.8779111649568709 9 88 82
0.7885475036879068 5.913108199401906 0.8856837752446288 9 88 194
0.7276546996860607 5.865130533207144 0.9100389177581018 9 89 157
0.8127170423099552 5.967546176738967 0.850483566831678 9 89 216
0.5148545709646121 5.9091139971306355 0.8696561676474115 9 90 87
0.8203150462649762 5.98108969762961 0.8397717028795781 9 90 222
0.6609918076983972 5.780450010119642 0.9525434347755919 9 92 104
0.7754616967208268 5.8810826998862 0.895039882804606 9 92 182
0.7449120079321451 5.816844347423391 0.9315260927081832 9 93 152
0.7328907759528019 5.854753443361351 0.9045509485632319 9 94 158
0.786518291260073 5.888445383626358 0.885972447763868 9 94 189
0.7896925777606854 5.895445154834107 0.8817044055001484 9 94 192
0.8044362118809569 5.916730998110976 0.8689864035374026 9 94 203
0.8116732451478054 5.944388637202997 0.8518506074627272 9 94 212
0.7908875276979285 5.904836283839244 0.8732789429311874 9 95 195
0.8337107199445262 5.99427689167875 0.8186827312751939 9 95 231
0.7050748394468382 5.775490214590732 0.9486930205682206 9 96 123
0.7468680724312795 5.8529537315370845 0.9015002032113701 9 96 164
0.7622053200741432 5.862693701005598 0.8960930785767962 9 96 173
0.6833280137313944 5.772641969348867 0.9470556597566595 9 97 113
0.7202964084785959 5.78042214565637 0.9417070393672957 9 98 132
0.7363586051547925 5.786740526181389 0.9385068075814792 9 98 141
0.8207442789159802 5.935309560667233 0.8450131174829008 9 99 215
0.8293931326195503 5.962210484677123 0.8281507878246802 9 99 224
0.6704527976716559 5.752196449134301 0.9502775570444364 9 101 102
0.7793100765874019 5.863918808398312 0.8837760337105784 9 101 182
0.7102794638904699 5.757385637482067 0.9444826810762177 9 103 122
0.7540521590693692 5.785023176697651 0.9288743072024916 9 103 150
0.7640121677858838 5.859012540588591 0.8811043935060959 9 103 175
0.7895238011826249 5.880737936363744 0.8683383600538116 9 103 191
0.8034171231299218 5.898943056673052 0.8572231611020458 9 103 201
0.8153297362750195 5.922012433851776 0.8428203543456932 9 103 211
0.7638715363693831 5.796358603067219 0.9196421697821229 9 104 158
0.7659573941364652 5.832202752267458 0.896266733644054 9 104 169
0.8400768677777819 5.980768406663903 0.8030688459409209 9 104 233
0.7699991788405905 5.803293994007632 0.913045689341522 9 105 163
0.6888569221858675 5.734870903963018 0.9511465316173883 9 106 106
0.7406897418601988 5.7713128640967035 0.9300685418205974 9 106 141
0.8281011425877793 5.936617259568829 0.8259839972688133 9 106 220
0.7279826744062754 5.756372476075175 0.9368758307436846 9 107 131
0.7666872401800591 5.8575942349241945 0.8720790096243328 9 107 177
0.8328562925955549 5.939559144550911 0.8189275477915091 9 108 223
0.8370877114960305 5.951068369473803 0.8115258771781165 9 108 227
0.7918236494924671 5.882014432015341 0.8521798366856191 9 109 194
0.7255744159197854 5.747008520476554 0.93598536290212 9 110 128
0.7809059675094826 5.807975472947381 0.8960322373753131 9 111 171
0.7027098212708882 5.727517670909412 0.9430666832607636 9 112 112
0.7187680519534625 5.732907162422669 0.940406581182669 9 112 121
0.7453726666586977 5.754672342022362 0.9273498518538353 9 112 140
0.757979867954235 5.768893327832009 0.9185298567474457 9 112 150
0.7681482497731911 5.777317202933746 0.9134686760593029 9 112 157
0.7880525759066073 5.880593401612522 0.8450804673036074 9 112 193
0.8062689035362911 5.887346327299019 0.8416321921783289 9 112 202
0.8199101884596721 5.902675751963455 0.8321278441269091 9 112 211
0.7722026570810283 5.783711807684358 0.90699911978136 9 113 161
0.7289571689389313 5.734916510342154 0.9350325253013678 9 114 127
0.6889648243908075 5.71046341974802 0.9468699871489119 9 115 101
0.7630357863008016 5.842120329118363 0.8618281051846295 9 115 174
0.8403021016251263 5.936215271466971 0.8025595364484115 9 115 227
0.7728854228473011 5.860120724974556 0.8475769579950174 9 116 183
0.8306247442775946 5.918427259371466 0.8086353313995083 9 117 220
0.7732227740356653 5.7763588534994454 0.8999862586531432 9 118 161
0.8124640101322593 5.89094588075323 0.8236550468766943 9 118 207
0.8392643173228823 5.924744946471872 0.8021100081514259 9 118 225
0.7178734219662171 5.717309742900278 0.934763168117902 9 119 118
0.7513975091546787 5.743327664699185 0.9165846199170471 9 120 142
0.7801225928750353 5.784390856939286 0.8900003627928075 9 120 167
0.7813630141364716 5.814902640706742 0.8689446925660991 9 120 176
0.7612367838818248 5.757016058715584 0.9053342267417811 9 121 151
0.7879930486929894 5.8614022270419 0.8345225278177201 9 121 191
0.7956676277551504 5.869179669723863 0.8296177180312987 9 121 196
0.8283757496008235 5.899020436898842 0.8110118638111277 9 121 216
0.8484198313619852 5.9328889680761705 0.7887789974939581 9 121 231
0.7341110030686905 5.717771289822447 0.9261676183398134 9 123 127
0.7018148804707155 5.692680429240138 0.9392794062113525 9 124 104
0.796117760101787 5.793222733032215 0.8724781518423856 9 125 178
0.7650955575174457 5.8496286094703125 0.8306324084604978 9 125 180
0.7768375346809886 5.850576730714221 0.8307569286405464 9 125 185
0.8096413188490554 5.878590920319656 0.813228803776006 9 125 205
0.8554104159566294 5.9395510683640484 0.7733576512616989 9 125 236
0.6379666536621993 5.660237243146288 0.9509649582907387 9 127 64
0.7189038055530079 5.691690980482751 0.9318781292058813 9 128 113
0.8244294899654435 5.893139435668883 0.7957375551779278 9 128 215
0.7513839000374973 5.7146690283708255 0.9153975918340029 9 129 136
0.7566383921711604 5.722677955347978 0.9100416570553171 9 129 141
0.7661222283524897 5.737611128100765 0.9000333051644444 9 129 150
0.7800692041313613 5.750147766264488 0.892048419918061 9 129 160
0.7859996039747503 5.771944712422171 0.8768882388597589 9 129 169
0.8425965300487029 5.904934995984044 0.7858142720659133 9 129 225
0.7356391794189485 5.693475359505524 0.9271128606968874 9 130 122
0.7924228896308081 5.855257039300196 0.815115181334723 9 130 194
0.4979075063611247 5.7332884562185376 0.8792945028986299 9 131 38
0.8328174235095269 5.892496512758943 0.7884828490528077 9 131 219
0.7462922011801125 5.703206726743144 0.91616819657276 9 132 131
0.8068186275658517 5.866235959886082 0.8028025606753179 9 132 203
0.7200507259756124 5.673785620924733 0.9332222500736369 9 133 109
0.5104147998697384 5.724630907284258 0.8787449259864083 9 134 41
0.8003748843747076 5.776007121768341 0.8624309865939699 9 134 178
0.7726381280649846 5.838222844747839 0.8151986114750369 9 134 183
0.8408488553661051 5.89259531391254 0.7806252802832745 9 134 223
0.8578910657170691 5.913374896651803 0.766757778914843 9 134 234
0.7715069077845375 5.723160394054789 0.8963296575310293 9 135 150
0.7847650759581581 5.73967827535013 0.8852516228615567 9 135 161
0.6392105277590885 5.6368772579436115 0.9473041362609311 9 136 59
0.6536923890428126 5.6426908469904244 0.9441162031847751 9 136 68
0.4981887566253105 5.712951962141894 0.87867982482399 9 137 33
0.7651191537566446 5.697950540980366 0.9071269550585144 9 138 140
0.7687109427102554 5.843349968524006 0.8002569615429691 9 138 184
0.7379162806833262 5.6693523335714495 0.9238331639536846 9 139 118
0.7904516191656126 5.84325568474127 0.7992116989955975 9 139 193
0.8320365009614916 5.882869414931148 0.770230532127458 9 140 219
0.7464524966196426 5.67013346097464 0.9192193234306969 9 141 123
0.7549193111150898 5.684604816140952 0.9090939456863589 9 141 132
0.7746001016010016 5.705802932951753 0.8948188618343236 9 141 148
0.8372231087564985 5.878913178896356 0.7650698057130031 9 143 221
0.846496162705015 5.885186956194171 0.7610875360211982 9 143 226
0.8565850329979805 5.894982445926108 0.7545289231993171 9 143 232
0.8055851432321282 5.849205295855774 0.7820904080978447 9 144 202
0.6501267410396195 5.611021549581893 0.9467903191168604 9 145 57
0.6616616395215148 5.619458616692034 0.9413323505344545 9 145 66
0.77409879079756 5.837891608335649 0.7853481728938994 9 145 187
0.6268227207579947 5.5960656129253765 0.9539814266617209 9 146 40
0.8140909079569453 5.853589080632915 0.7738410952638333 9 146 207
0.6778535674404698 5.619827569326777 0.9354386195366051 9 148 75
0.7367540102128387 5.647256447085125 0.9192727252313047 9 148 113
0.8718169493893395 5.902940571578131 0.7322792048549746 9 149 241
0.8121563517527638 5.846359789158008 0.7650525332373184 9 151 206
0.7409270108274384 5.63519912829469 0.9195014298587891 9 152 112
0.8250342438280162 5.8533482220266295 0.7578712752656415 9 152 213
0.8372205654361118 5.858579603500102 0.754838987106792 9 152 219
0.8391498613014359 5.8688887243325984 0.7470310947159277 9 152 222
0.8556389082587093 5.880854207318898 0.7391509783530894 9 152 231
0.8753117510657662 5.902590527084967 0.7239830941464257 9 152 243
0.8001555894273441 5.838615225408815 0.7643503631508417 9 153 200
0.6519003576121309 5.581891646311449 0.9487974738255007 9 154 49
0.665058179447021 5.5881556281234515 0.9450303728023272 9 154 58
0.6776775017837562 5.595117593592713 0.940674790528855 9 154 67
0.776504085015496 5.826643726932941 0.768822864113041 9 154 188
0.6387026290559122 5.5726452277227425 0.9526284395248104 9 155 39
0.8774313006647729 5.9158093407457795 0.7049101423832256 9 155 247
0.7870847175551705 5.831405649367621 0.7602975986410762 9 156 194
0.6922855919025166 5.596821523117643 0.9337000905058592 9 157 76
0.8112884923234316 5.732363217775193 0.8373734230569472 9 157 178
0.814959989487743 5.755233348832768 0.8197094312333763 9 157 186
0.8045058013170632 5.837682712238449 0.7511082079401366 9 158 203
0.8600699633895115 5.874730586436506 0.7266941849099497 9 158 233
0.894517443250325 5.925733079470581 0.6894439003978148 9 158 256
0.9031324901250036 5.941540453132489 0.6777203186080076 9 158 262
0.6624552428924584 5.566189698992193 0.9507233633025316 9 159 49
0.8342468906121331 5.8598155343146265 0.7332897367827547 9 159 220
0.8091773307737622 5.70712134337534 0.846862076826638 9 161 171
0.8433839655920683 5.8592486940278565 0.7286529440322416 9 161 224
0.8744028102389271 5.888181733225691 0.7083380907407086 9 161 242
0.678139175067956 5.565263203590968 0.9437996828944641 9 163 58
0.6883345341346068 5.570000711964287 0.9409125013917312 9 163 65
0.8205900799993925 5.8384998296461 0.7373379604615293 9 163 211
0.6406814834253941 5.544950946983678 0.9544975132990123 9 164 31
0.6540335320306931 5.550400440814631 0.9513154445915988 9 164 40
0.7759581424025805 5.826671753870869 0.7399004787382031 9 164 191
0.8788347605513056 5.891168993376367 0.6972611133129651 9 164 245
0.7039309648052843 5.570357926863852 0.9351862182659401 9 166 74
0.8117254209738098 5.721132070701083 0.8228384072476006 9 166 178
0.820269068745147 5.7399671252896844 0.808353235325382 9 166 187
0.796401317435542 5.826990191272123 0.73268865041259 9 167 200
0.8595290736450789 5.8646030684900285 0.7079135530061971 9 167 233
0.8933277129741428 5.9060088445280075 0.677351490483035 9 167 254
0.6654393619886513 5.5453352510239675 0.9474412515015574 9 168 45
0.6802233757588849 5.54948992011027 0.9454220509208169 9 168 54
0.827448124350558 5.837936935015685 0.7236827158936683 9 168 215
0.8728009053423924 5.882710906187229 0.6913504478385564 9 168 242
0.9174249755595375 5.964215258214672 0.6289756818896024 9 168 273
0.8003593954135421 5.658863469936181 0.8623135527115842 9 170 155
0.8061407790298263 5.675365241332301 0.8492987156764268 9 170 163
0.838271104863879 5.843352900987628 0.7142954434730129 9 170 221
0.8683844185988516 5.868570393608611 0.6964071149699209 9 170 238
0.7979471317286728 5.827691799246615 0.7203900539558129 9 171 202
0.6964062715366703 5.547924547992206 0.9391525995755955 9 172 63
0.7082290890067267 5.559371882888917 0.9308096583047671 9 172 74
0.6530262478194251 5.52404798947097 0.952529493501921 9 173 31
0.6654528837207572 5.530048549247396 0.9487408375511633 9 173 40
0.8438198039100645 5.843406965759443 0.7057535115142336 9 173 224
0.7964976844089844 5.826175600059415 0.7125093043199087 9 174 202
0.8169619846357796 5.822078136980751 0.7178979004766409 9 174 209
0.9180209451510475 5.9490579900814 0.6219015345617872 9 174 272
0.7231500436934118 5.560372900389475 0.9244864471039412 9 175 83
0.815402782336532 5.685187523000773 0.8291494340195038 9 175 172
0.8175857193975444 5.695199574853626 0.8209948260635207 9 175 176
0.8210061465592049 5.707078501259471 0.8114004087610829 9 175 181
0.8240040629242624 5.716482334301877 0.8038332892934709 9 175 185
0.7953791194864677 5.79405839291114 0.7362227627605346 9 175 194
0.8181789000605946 5.831745292509252 0.706945040341135 9 175 212
0.808272472105027 5.668616220784611 0.839731772857039 9 176 164
0.849810478103847 5.842730884453513 0.6977995981926448 9 176 227
0.6828179767985507 5.527231894989369 0.9437486990228297 9 177 49
0.7964097764649982 5.634569853881515 0.8621272400962633 9 178 148
0.8734490759256031 5.872816328374658 0.6654953391442514 9 179 243
0.66021946088534 5.511941498050484 0.9476510024279967 9 180 32
0.7257851081283304 5.545689767842287 0.9255521793157927 9 180 80
0.7995952228181448 5.78112080927942 0.7328629289330177 9 180 194
0.8044554567611739 5.7893029104754 0.7263967722644527 9 180 198
0.8852410030149934 5.890222520179577 0.6487349078927799 9 180 251
0.891736662062916 5.898775578509159 0.6421177167399524 9 180 255
0.9026621631055595 5.915413138577718 0.629074095422117 9 180 262
0.696096514366239 5.528221317851569 0.9351338105369233 9 181 58
0.7094573735267943 5.53360730562192 0.9318911730876676 9 181 67
0.8794609092108874 5.879243130361182 0.6543107710746753 9 181 247
0.6772784373792868 5.510402744184213 0.9439161991845308 9 183 41
0.8037042259356465 5.815405220755984 0.6949830335358654 9 183 205
0.8970129129364328 5.9007553111048034 0.6312553548814486 9 183 258
0.807883612046349 5.638777649070205 0.8445118647810835 9 184 157
0.8177462009289527 5.67461989714436 0.8146493434016997 9 184 173
0.8262437186940282 5.692177428039948 0.8003988763313669 9 184 182
0.8538778718151807 5.842826428412641 0.6703310918815777 9 185 231
0.6864938185957395 5.510216519820547 0.938216878685219 9 186 47
0.8613972139895228 5.845670656394312 0.6623587546543137 9 187 235
0.8217947508379562 5.657901760487955 0.8189808788637649 9 188 171
0.6710387434924594 5.492793849278106 0.9449680820608526 9 189 32
0.7264416966819354 5.5247351143348125 0.9228751507988497 9 189 75
0.8323886254168604 5.708432637403301 0.7731878753338206 9 189 191
0.8121275464879222 5.754219950266199 0.7309123535915099 9 189 195
0.8820256272035345 5.869284337558458 0.6375274132195626 9 189 248
0.8898275516954178 5.880354824532429 0.6286573157095414 9 189 253
0.7029996538805466 5.508063593996263 0.9327010540777662 9 190 56
0.7141861712671089 5.515243267654812 0.9275864961357518 9 190 65
0.7388173963894029 5.530114794289025 0.9171488612189379 9 190 84
0.8282027616830682 5.819261152517299 0.6662188186759974 9 192 218
0.8133306997288239 5.630111450951815 0.8294316587633117 9 193 160
0.8224723574827306 5.660673402086199 0.8032853032142222 9 193 174
0.827802093529223 5.682671151428337 0.7843293913489829 9 193 183
0.8721169063055412 5.84748416787403 0.6427848316280462 9 193 241
0.723086587623512 5.514419865782977 0.9200138295593022 9 194 71
0.6877026002967505 5.488222254684711 0.9371986540232115 9 195 41
0.6985448868778246 5.495285381890742 0.9320806788000746 9 195 50
0.8508561603846818 5.826041393250607 0.6531506269921419 9 195 229
0.7226955563775614 5.50357528769451 0.9227141903469204 9 197 67
0.8011080349008135 5.809698373011933 0.6558975034736284 9 197 207
0.6775488984113396 5.477550794535007 0.9388188701196203 9 198 32
0.7024628442089713 5.488545353170412 0.9316912460791413 9 198 50
0.8270587372072131 5.709213674684153 0.7463838005976114 9 198 192
0.7387884383742414 5.510002021709022 0.9140586127705651 9 199 79
0.7435116365508377 5.515646614413629 0.9094774103939074 9 199 84
0.8287338573614582 5.679784319212488 0.7675546615692606 9 200 185
0.8330009170596804 5.7545668782531205 0.7000316234294442 9 200 207
0.8132899370486013 5.8117362847468765 0.6457947080530692 9 200 213
0.8505293928426219 5.820181030701976 0.6423573914887584 9 200 229
0.8235396763915337 5.819886465920529 0.6363005689609158 9 201 219
0.8268081285864184 5.650476662388664 0.7885274962807902 9 202 176
0.6940975718008391 5.473018629316497 0.9311197881170689 9 204 41
0.7363068206261131 5.496951344099896 0.9139856885198104 9 204 74
0.7200988990466292 5.480927422142972 0.9222382012144609 9 206 59
0.7035260930238576 5.470644070276119 0.9275191077635738 9 207 46
0.8296608174899713 5.701532178493125 0.7275079317301356 9 207 194
0.7460518357303181 5.499304264283593 0.9035129884335302 9 208 82
0.7173318827207602 5.47276906329765 0.9225548589996371 9 209 55
0.8354461077397404 5.712388739789853 0.7121145934724797 9 209 200
0.8385789183879402 5.742326445291626 0.684424149433683 9 209 209
0.8101161995303896 5.809315099639522 0.6181966731236728 9 209 214
0.736939208903546 5.487930685361148 0.9083400212982525 9 210 73
0.8320889868201802 5.658206589814969 0.7482529479840232 9 214 185
0.7312217777943645 5.4706149554663765 0.9122755594313832 9 215 64
0.7026084868264527 5.454722918211131 0.9215872461785717 9 216 42
0.7140567842050125 5.457319034639768 0.9205305330399549 9 216 49
0.7469859213989428 5.488672693725835 0.8921486601601002 9 217 82
0.8354230484473311 5.683049862079553 0.7130823118189807 9 218 195
0.8370813850661316 5.7099887907894855 0.6872561566570209 9 218 203
0.8443530910206114 5.733773643398104 0.6651905902782832 9 218 212
0.8293298489300971 5.7746383786422655 0.6237887208538941 9 218 216
0.7398921352373036 5.469756035594385 0.9047394014413903 9 219 70
0.7287890253244597 5.4521636372848405 0.9086475582689991 9 224 58
0.7068534409303695 5.4364668900730315 0.9189120841937165 9 225 39
0.7180066393512137 5.442640428683097 0.9142758878327032 9 225 48
0.8457077268641027 5.678299820644751 0.6918097637552868 9 227 201
0.8488757336780909 5.707343872243972 0.6632935616559659 9 227 210
1.319433888108286 5.938975443701809 0.49538515591913845 9 227 429
0.7094944741981737 5.42612432425398 0.9225495275627695 9 228 36
0.7406241272167052 5.452033942565983 0.9008298300481751 9 228 66
1.3398147367449413 5.935499227302174 0.4944342034207876 9 229 437
0.7327550860099739 5.444135278730183 0.9029097704884457 9 230 59
1.310534523969207 5.92771180757536 0.4947036709663959 9 230 425
0.7473321671277894 5.45287045833821 0.8912685268279552 9 232 72
1.3336908665362575 5.920162970299128 0.49475208393719594 9 233 434
0.7228274792771011 5.423994160645887 0.912458758893383 9 234 45
0.7539997224241529 5.454902502208192 0.8828100286857636 9 235 78
1.2901166612023236 5.907996726686635 0.4939172047604139 9 235 416
1.3635102941648927 5.921776047593437 0.4900749553386947 9 235 446
0.8550167299484167 5.698113240372233 0.644718229221699 9 236 213
0.7279740957725986 5.425064184871368 0.9049639190003456 9 237 50
0.737578099121132 5.430809393990475 0.9004003742564558 9 237 58
1.3103546249746099 5.906010132733709 0.49159526599666314 9 237 424
1.337353885144049 5.907138464119422 0.4942510517029517 9 237 435
1.3496897447675777 5.910225439364107 0.48921780924151603 9 238 440
1.2644407125522574 5.892597258303807 0.49170944525583704 9 239 405
0.7457059569431839 5.431965268419387 0.8907057175744522 9 241 65
1.2406934472698365 5.882347531636965 0.4880773960542151 9 242 395
1.270496831021586 5.884156788985279 0.49051527305392506 9 242 407
0.7258917250044591 5.408755768364008 0.9073446338123689 9 243 43
0.7558349624287002 5.436171950850076 0.8804229034593566 9 244 74
0.7632185860548413 5.440664152652029 0.8767669835783801 9 244 80
1.2475499955190432 5.868482294401531 0.4927852444182941 9 245 397
1.344373404259779 5.887626131656032 0.48682722059551686 9 245 437
1.4347213350868189 5.926396951758081 0.4591235724498164 9 245 474
0.7380428011551968 5.410681472205469 0.8999210810766209 9 246 52
1.3567465848787705 5.884385187611515 0.4884865556320175 9 246 442
1.270171373070392 5.866428014042284 0.49107482546111547 9 247 406
0.7462563893799277 5.4132477199450335 0.8887149139491408 9 250 60
0.7669199298183645 5.434655825014066 0.8687922870027659 9 250 82
0.7298776793044053 5.394582404117174 0.9015400913586461 9 252 42
1.22025961675855 5.849410037338208 0.4835512261958379 9 252 385
1.2579161109710797 5.846148141826599 0.4928760469813156 9 252 400
0.7567970300485276 5.416804760064131 0.8791025515780755 9 253 69
0.8535216118072495 5.662279108522456 0.623566155021445 9 254 209
0.8598993851134568 5.6872405584854935 0.5972964410251463 9 254 218
0.8589332503490279 5.713303091175645 0.5686833375946381 9 254 224
1.2436118439997252 5.8427251123789725 0.48710159680913034 9 254 394
1.4316228039236627 5.901267432341451 0.4523751655126582 9 254 472
0.741934013251059 5.396463463171593 0.8941042385343857 9 255 51
0.7553334885819493 5.404493636655537 0.8849447108142839 9 256 63
1.2831744666364098 5.840466852380143 0.48845432602666006 9 256 410
1.4353679928837455 5.905493775704515 0.4370888977714502 9 257 473
0.7644055432606605 5.414534961554395 0.86782445782354 9 259 75
0.7363292736010897 5.381789505441165 0.8948709872660323 9 261 43
1.4272956751180608 5.866142046961778 0.464600641684767 9 261 470
0.7572778938584431 5.398287253312959 0.8773149646522722 9 262 64
0.8568922479433078 5.656995708541031 0.5997167578564492 9 263 212
1.2569820946915935 5.816409864507936 0.48543455690393555 9 263 398
0.7460705530909807 5.383797420681375 0.8868571406488094 9 264 51
1.2619696403606206 5.816196050993267 0.4754298215028616 9 266 400
0.8618026508411432 5.67804725720285 0.5592292430092298 9 268 221
0.8580743516400937 5.6512720395418565 0.5858241803102917 9 269 213
0.743708787969048 5.365296166013199 0.892866136500305 9 270 42
1.17482586107156 5.77756207844781 0.4828921413534544 9 272 362
0.7528604399826705 5.3691566294450155 0.8825598828076161 9 273 51
0.8608776260675706 5.671582239838532 0.5342009131740335 9 277 222
1.2688220799192613 5.781967460958106 0.47542508296399366 9 277 401
0.7774442158239431 5.38858295928188 0.8513391855573053 9 278 78
0.7837349569638334 5.397278290691517 0.8421406235571759 9 278 86
0.8595791957815253 5.641130643344542 0.5664188637771361 9 278 214
1.172952670472761 5.759310192126065 0.47789243366179046 9 279 360
0.8119627536994619 5.443953260265832 0.7833958461153101 9 281 125
0.8572981521240546 5.688105841901036 0.499053983745428 9 281 226
1.2469666147746594 5.765959366472367 0.4756777444068778 9 281 391
1.182044705292162 5.749006075747627 0.476862535659053 9 283 363
0.7706645726415368 5.366681978859183 0.8583409745959065 9 285 66
0.77946676946129 5.377803324858134 0.8464454738934858 9 285 77
0.8560299089930374 5.674962933444039 0.49576145234423263 9 286 224
1.1541824272966794 5.721107409052029 0.4944040043835456 9 286 349
1.1659227948558268 5.72246873146841 0.4949059454654785 9 286 354
0.7599685581184448 5.3466915439550675 0.8654847614183102 9 291 52
1.1910183820018498 5.7029482484440415 0.5014744202582992 9 292 363
0.7791744682265103 5.367914074930394 0.8375115354328662 9 293 76
0.7684183007381751 5.349521408472187 0.8558345752325854 9 294 60
1.1348235875377168 5.688709239742342 0.5011382436149601 9 294 338
0.8667128271318812 5.64664483606502 0.4986162291497056 9 295 224
1.1559545001000642 5.689233172184552 0.5008393674005835 9 295 347
1.1808859787833241 5.682563493486495 0.506703643802197 9 297 357
0.7520444441265246 5.3289479049111135 0.8683039692848795 9 298 41
0.8954858971897545 5.633480455993212 0.5057240316785809 9 299 233
0.7593801987618812 5.333323903905311 0.8590112725340749 9 300 49
0.7769386583609781 5.348796592184923 0.837375607315888 9 302 69
1.203813662337857 5.670498317203866 0.5082455648233597 9 302 366
0.7686678285864004 5.336906950181244 0.8484112667120347 9 303 58
0.8985397774932526 5.623490848283232 0.5040150187135866 9 303 233
1.1302793558809467 5.6565528394763955 0.5078195461804775 9 303 333
1.1483379883825338 5.6583406426818375 0.5054339844974594 9 304 341
1.1718597847304641 5.656987005885479 0.5082521209353266 9 305 351
0.7592806343800134 5.319947782913575 0.8607012876825818 9 306 44
1.1216893906659977 5.642896602624676 0.5090216461064108 9 307 328
1.1742275747868245 5.6456737642239965 0.5124721342632403 9 308 351
1.1937924670787972 5.65011047097821 0.5106662343938617 9 308 360
0.7705547422456462 5.330788955755254 0.840879435061892 9 309 59
1.1546553047915389 5.638746216263912 0.5064628991880917 9 311 342
1.0084073220482188 5.614413460646205 0.5044525132150173 9 312 277
1.104963444948442 5.6231138972572365 0.5056826608874725 9 314 319
0.7627116012972045 5.308343762621863 0.8532479484795739 9 315 44
1.145880270528624 5.62582564235368 0.5070053195820989 9 315 337
1.126965909921919 5.618662058659754 0.5089014920551969 9 316 328
1.026770541075535 5.596125142904814 0.5141591500959262 9 317 282
1.0477193222201404 5.602707802329832 0.5097380800535172 9 317 292
1.1558463732534192 5.621731252115967 0.5072199188280362 9 317 341
1.1788225743833523 5.621445220362608 0.5125613446940327 9 317 351
0.7671612231349401 5.3149916312669285 0.837187404840141 9 318 53
0.7742170521135998 5.320248190084442 0.8315542835746483 9 318 60
1.1295696495821956 5.60719941044351 0.510141992158762 9 320 328
1.1581983067988821 5.611264044861906 0.5108301493391882 9 320 341
0.7597320938503122 5.2946073998103005 0.8554709315325045 9 321 37
1.0960432450906428 5.594084726895975 0.5095946738934287 9 323 312
1.1163907509846203 5.595683911912139 0.5118973750540332 9 323 321
1.040139595020445 5.580374247231018 0.5124258400646322 9 324 286
1.0554405208656346 5.583242276392877 0.5118508967726616 9 324 293
1.137364740035881 5.593997829662607 0.5151744710028208 9 324 330
1.1565043086217415 5.598338086278917 0.513407829822621 9 324 339
0.7641787964926626 5.298829654133125 0.8371985972385626 9 326 46
1.0794535395081155 5.580025356360708 0.5142084582661222 9 326 303
1.0957010877640427 5.5770535186336225 0.5107954064557854 9 329 310
1.1152647309560408 5.5802993003194725 0.5106760977730487 9 329 319
0.7615131617553476 5.281649302492228 0.850048412526037 9 330 35
0.7718655369438836 5.300035068964467 0.820749778187633 9 332 55
1.1415156387769396 5.574303811808514 0.5139881998397111 9 332 330
0.7617985166743615 5.287711803396376 0.8333134681226073 9 333 42
1.0587615907489862 5.5610179968538676 0.5099909905720628 9 333 292
1.1183758616637727 5.568044989648982 0.513815077433802 9 333 319
1.0797236033454511 5.5590119738968395 0.5102071772188355 9 335 301
1.0996285473150846 5.560157541622897 0.5094560076710852 9 336 310
0.7690009578667123 5.28700997786839 0.8249735442684699 9 337 48
1.1120765329071283 5.555683279602188 0.5113540283633888 9 338 315
1.0637907044567616 5.543719479434512 0.5134997221996553 9 339 292
1.1373222859197125 5.551979708531269 0.5115126987915215 9 341 326
0.762003412658429 5.269138821188472 0.8357166140600149 9 342 35
1.085619539044363 5.5360724841579 0.5110832794827094 9 344 301
0.770242217361089 5.271564988909963 0.8229888841590238 9 346 44
1.1037302138085323 5.5289760388364035 0.5185988284795591 9 346 308
1.1225036638322887 5.53166375448384 0.5154342025237666 9 347 317
0.7629321423695172 5.262444581881146 0.8293320005508416 9 348 35
1.1040485835460003 5.517798407916689 0.5166244366676442 9 351 307
1.0864689745546898 5.509559359496279 0.5171402063186994 9 353 298
1.1064417322899185 5.50915019115472 0.5191092320396751 9 354 307
1.226287393352161 5.529006120699452 0.5193893873108066 9 354 365
1.244868750889612 5.530967020348651 0.5211642908076028 9 354 374
1.314935112156487 5.5502350082309455 0.5094619715655193 9 354 409
0.7689929648558242 5.263067994725479 0.8100663013829209 9 355 44
1.200048218987707 5.521668007435668 0.516386641840165 9 356 352
1.1454723627124437 5.5083125721395305 0.5191444568680472 9 357 325
1.1642406728832722 5.509912585493179 0.5177615849686825 9 358 334
1.18353566664365 5.510381782965075 0.522120809257379 9 358 343
1.220150502073472 5.516042892820048 0.5191036410251755 9 359 361
1.2965368916222553 5.531694644755827 0.5146880060030896 9 359 399
1.2645589338811742 5.524032054164031 0.5144921205083006 9 360 383
1.0086917836022715 5.471135103558679 0.5261504048616297 9 361 257
1.2397133124048902 5.51147830818969 0.5201770307534703 9 362 370
1.1109456605512928 5.489588254992131 0.516551520581638 9 363 307
1.1913539365205623 5.501754456597597 0.5188430095943002 9 363 346
1.2096298370503809 5.504795626372939 0.5189221354293929 9 363 355
0.7700014879806512 5.250587791534471 0.8039246284656297 9 364 42
0.7686362728038522 5.255231262160344 0.7960927766892097 9 364 45
1.014048900344819 5.4627769767282075 0.5293992482911756 9 364 258
1.1243064375051925 5.488330243681474 0.5183379948848208 9 364 313
0.960609014607248 5.4546206100957795 0.5240838515865307 9 365 233
1.1431830910879492 5.489434001228983 0.5178563190393948 9 365 322
1.1681087429792978 5.4923410871168 0.5199824933170001 9 365 334
1.241334079554773 5.50235766336897 0.5238480809967059 9 365 370
1.043615849467387 5.463257117187376 0.5251504562036091 9 367 272
1.2695846641314357 5.504663028713602 0.5202718388397425 9 367 384
1.1884208312646352 5.486391778771878 0.5237271310824536 9 368 343
1.2876894760605935 5.506176800190852 0.5190087929524136 9 368 393
1.2525403172228189 5.496163249482429 0.5217759385777532 9 369 375
0.9828195100848689 5.447067221002105 0.5230249329775158 9 370 242
1.0133912119677644 5.449658852845605 0.5273329806416704 9 370 256
1.152471212188315 5.477399437832912 0.5207340992911169 9 370 325
1.2076201843290586 5.483936515795902 0.5254473186745849 9 370 352
1.2251902217583845 5.488463510465959 0.5229342714684293 9 370 361
1.2672640230865817 5.493258827236277 0.5230390537898317 9 371 382
0.7634210315609469 5.236479152628602 0.7985677487102228 9 373 35
0.7678537061303369 5.245027267018585 0.7856320732015456 9 373 44
1.1265548823397655 5.463758414275666 0.5243611599491076 9 373 311
1.2402550621967694 5.484154268364095 0.5228137937952111 9 373 368
0.9909592004386447 5.440644289839189 0.5202754351523153 9 374 245
1.1730322107056064 5.470107816042096 0.5231799212323289 9 374 334
1.2136583427859369 5.473534547406692 0.5252417873146114 9 375 354
1.036036787026394 5.439258502182357 0.5277053947207944 9 376 265
1.0475153172754317 5.43768925049275 0.5297710562421327 9 377 270
1.1806951375333623 5.463621125774408 0.5246736718369227 9 377 337
1.1904674569531841 5.465837182726178 0.523771656630275 9 377 342
1.0098209561742113 5.431902629956938 0.5246792998277503 9 378 252
1.1482575601624037 5.45222852948925 0.5267577171843671 9 379 320
1.1656384515465044 5.456701008440282 0.5242516907347019 9 379 329
1.2209744716081075 5.4665941231780115 0.5236529109887718 9 379 357
1.2564748585379688 5.471575576277125 0.5217351262154433 9 380 375
0.7621483947153804 5.230103742948365 0.7848150959923644 9 381 36
1.1323508914280174 5.442480845766084 0.5309418443252867 9 381 311
1.1887987692097939 5.454752995302334 0.5266355909627549 9 381 340
1.2402300452014376 5.461249654165474 0.5268792377552489 9 382 366
1.0403152989458941 5.424441284325751 0.526770987575593 9 383 265
1.0576800100281636 5.428904956927619 0.524261768284211 9 383 274
1.1962930567241232 5.448352584956079 0.5282586669632718 9 384 343
1.1511934318793506 5.439275467632826 0.5265394007265023 9 385 320
1.2143937114433436 5.4488970388912605 0.5288850766654778 9 385 352
1.0376555456378094 5.4146658454498295 0.5311254803130883 9 386 262
1.1767176781118567 5.436388449504868 0.5315182607840696 9 387 332
1.0601108203146263 5.4133226532962455 0.524568346028869 9 390 273
1.0614917133567265 5.404069899711569 0.5295769590493129 9 393 272
1.0775360971557877 5.410273725303959 0.5235050907796086 9 393 281
1.1752841972956025 5.423717328916437 0.5300918628172184 9 393 330
1.192753093929687 5.426652557424167 0.5303157767915683 9 393 339
1.1577600899949576 5.4198287747238085 0.5276284882750595 9 394 321
1.2062627845262814 5.4282686332431185 0.5277483205775777 9 394 346
1.080442989180698 5.4019340203317965 0.5275039408987547 9 396 281
1.1791186185147167 5.405517855859781 0.5289773441782597 9 402 330
1.1964368461104145 5.40751022034372 0.5269998995279253 9 403 339
1.0744145731901482 5.380456378523266 0.529122078844412 9 405 275
1.177703408894268 5.394990772801331 0.5322736590535126 9 406 328
1.2604780473653163 5.398925753312647 0.5249620230217242 9 413 371
1.0892155858166286 5.364025806123536 0.5291129678297457 9 414 280
1.1074540737155159 5.364313166252418 0.5308499246596716 9 415 289
1.1816931302738238 5.376784768893711 0.5324930359130227 9 415 328
1.2523631886822375 5.390871154579425 0.5297458836514792 9 415 366
0.7660603853799944 5.1860367685300615 0.7420587765861154 9 420 35
0.768018357206213 5.191743349230736 0.7314299905007673 9 420 41
1.241397116370138 5.376196330058514 0.5265708694848688 9 422 359
1.1171411954256956 5.349946095294339 0.5300942102192807 9 423 292
1.2110317968806366 5.356259993927463 0.5313310196568508 9 428 341
1.2275113788421397 5.359528943437131 0.5307690276230606 9 428 350
0.767472137407706 5.175860927482585 0.7323535943785081 9 429 35
0.77246514198853 5.181160747366316 0.7162870545449297 9 431 44
1.137316674283012 5.334015718816622 0.5330922925252886 9 432 300
1.211537834730544 5.344399297487111 0.5314498258965232 9 434 340
0.76535149083561 5.166249944107103 0.7200617119227988 9 438 34
0.7812398616507144 5.179414116907054 0.6982060792363323 9 438 53
0.787555860237148 5.183122862429709 0.6927685457978348 9 438 59
0.7720919049061015 5.169512852836097 0.7085454845299843 9 440 42
0.7684930850261527 5.16262744494361 0.7074997690365484 9 444 38
0.7936746826678129 5.172515731397184 0.6923516415610783 9 445 59
0.7764664236121074 5.165339564108993 0.6937260012262381 9 447 47
0.7772756894275715 5.15961251590877 0.6993493777352061 9 449 44
0.8111066458267111 5.165362216209727 0.6930870204179178 9 451 66
0.7670481618073441 5.149519618474814 0.702905783930727 9 453 34
0.7951882199533348 5.1555990264155005 0.6972605196690144 9 454 53
0.7786107919200685 5.146284872979157 0.6964957101464642 9 458 41
0.8143283195085311 5.1499065853515615 0.6960451799819598 9 460 62
0.8287061373491571 5.15273999221725 0.6957147373302379 9 460 71
0.7989696526752597 5.14123616534122 0.6982755393332593 9 463 50
0.7736227192269247 5.136016082471489 0.695551619805106 9 464 35
0.8074180555328663 5.138414597887585 0.6973328486848308 9 466 54
0.8492489620529209 5.146223232954883 0.6974865437660713 9 466 80
0.784686049411221 5.128129956921993 0.7002964551778736 9 469 37
0.8227802409709379 5.137599478345199 0.6947658055977799 9 469 63
0.8081325060949895 5.126791918710727 0.6989926650557936 9 473 50
0.8575675379374372 5.136039750441932 0.695411857619889 9 474 82
0.8427166402372969 5.131530213510287 0.6957410281534785 9 475 72
0.8233643995280997 5.125999912516502 0.6964856865226652 9 476 59
