1.6369826877649805 6.024771785690177 0.06185321769871055 9 98 323
2.058392543353251 5.807108028694117 0.4357417851196276 9 98 419
1.4716289119524648 5.854542800872779 0.07489422057480444 9 99 254
1.5462982869342043 5.928233083898403 0.0690774140059991 9 99 285
1.5677515143494212 5.950623738258805 0.06662152367854679 9 99 294
1.776778536772147 6.141371044764716 0.06034268585814262 9 99 375
1.331064881013808 5.196038059310254 0.4174893572391728 9 100 26
1.512568870145514 5.883844675828355 0.07457662125932285 9 100 269
1.6329797040190552 6.000436100778032 0.06657290950351635 9 100 318
1.375807543062705 5.245549256665936 0.407455534940232 9 101 57
1.3637984646250334 5.2784688306720415 0.3793759575271701 9 101 68
1.6982300380523496 6.051212293862225 0.06588521677425452 9 101 342
1.5412614448119533 5.901840183638288 0.07040840086126954 9 102 279
1.5761628586355834 5.939765726314314 0.06536185101998138 9 102 294
1.6171325078625816 5.982100168409155 0.06085969685003967 9 102 311
2.070922402894804 5.794590598808519 0.43811118506631386 9 102 421
1.3514292682300617 5.2133847976500265 0.4085490303405004 9 103 39
1.5063330133498023 5.87020183089102 0.06704781445376495 9 103 265
1.6740149288396426 6.026772369422934 0.05940604221187962 9 103 332
1.697355307570478 6.034080222037529 0.06780133925477716 9 103 339
1.7636511715907706 6.096723015119053 0.06429683200203273 9 103 365
2.052138134682647 5.7717034834999 0.43927421935176736 9 103 410
1.3564942034861667 5.226240411829571 0.3999291764867633 9 104 46
1.3502792739064997 5.285301881079281 0.35771057886736934 9 104 69
1.463703917307043 5.822382613607739 0.06994652900937748 9 104 246
1.4712851794157735 5.828854140667214 0.06999540431798912 9 104 249
1.6065213346782174 5.95022930977685 0.0669783292471875 9 104 303
1.7105057139658648 6.039265633268883 0.06746978307721063 9 104 343
2.1016035377249933 5.811913642507552 0.4377381947511336 9 104 435
1.3332427052084967 5.2059808115106225 0.3969629732442119 9 105 33
1.3693965770073446 5.23321014391783 0.3995740747515062 9 105 52
1.7428904533217053 6.072852482598223 0.059381280626452426 9 105 356
1.554791175862148 5.884768786467755 0.07202014212224306 9 106 279
1.5600734508918976 5.894365504810483 0.06869363080098845 9 106 282
1.687983402737537 6.018973217494487 0.0592662121428591 9 106 334
1.7890537953168026 6.110642860174482 0.05629877217407531 9 106 373
1.812800378133477 6.13173538523224 0.05589546070646456 9 106 382
2.1224765182486705 5.82115066709688 0.43711872903684545 9 106 444
1.4563616268803772 5.805122227224588 0.06426010871900689 9 107 241
1.655686662919134 5.981559557074144 0.0612036182711404 9 107 320
1.657439693398174 5.99145598605905 0.05565044615685988 9 107 322
2.041449836627676 5.740636145497338 0.4409779263607134 9 107 400
1.5691825520692222 5.910537625455156 0.05448837920719707 9 108 287
1.6014918890480185 5.923492124784131 0.06437840799580652 9 108 297
1.3272883167107103 5.184406393523586 0.39547615990719376 9 109 24
1.3275029758312207 5.204609516149902 0.3821251847283781 9 109 33
1.3378229976225942 5.292296098191197 0.32957016304147535 9 109 71
1.4935245402311244 5.81781988508499 0.06849406270837166 9 109 252
1.5304202766515336 5.840808055631988 0.07435081676305133 9 109 265
1.5521448053233315 5.861365330819179 0.07311631790897177 9 109 274
1.672728375213739 5.974750620588562 0.06674390855101509 9 109 323
2.101497150004145 5.788354895193782 0.43409218949623074 9 110 430
1.328095032241812 5.21160292262624 0.37146068208508964 9 111 37
1.445884615931477 5.767056859178522 0.06643272391237098 9 111 231
1.4773752523595554 5.786131793084701 0.07181329205946296 9 111 242
1.727784242989953 6.0289416897292725 0.053391251697032516 9 111 345
2.0818796329155065 5.76782848591807 0.43333472329653744 9 111 419
1.6302891588055475 5.912925656174972 0.0706598227007953 9 112 302
1.7055820332378078 5.980921918164221 0.06845531542290528 9 112 332
1.7642747787492796 6.054896482836587 0.05260255901214572 9 112 358
2.0646537810691 5.748104136193507 0.4334405132110617 9 112 409
1.3319031734966589 5.182942031385524 0.38667380864639966 9 113 26
1.3331169240413632 5.265325820187602 0.33165354656669477 9 113 61
1.6410373782533454 5.921195926310477 0.06696541727612493 9 113 306
1.6454415670497924 5.938611232337276 0.05774499656726384 9 113 310
1.7039467634510441 5.965007610891861 0.07389122168943985 9 113 329
1.8073584755152479 6.067624893708794 0.06457853388362111 9 113 371
1.8200479665676177 6.079687599290297 0.06379381652083116 9 113 376
2.041489872438646 5.718396576971648 0.43687072670231686 9 113 395
1.3276449999598365 5.19731589425484 0.3712988940345838 9 114 32
1.3261503154370051 5.228392724732798 0.3493325009691557 9 114 45
1.3247220188767068 5.238706520203921 0.34149887850309013 9 114 49
1.3451365027765372 5.283809637161416 0.32278224348264173 9 114 71
1.4568345882653535 5.754701249034101 0.06824716081114124 9 114 231
1.5955510576791898 5.876297494777713 0.06656492678305881 9 114 287
1.6053855638521242 5.896686225068164 0.05845748182937016 9 114 293
1.7149668918741827 5.980511603333461 0.061038195352221214 9 115 334
2.1439842439637617 5.805936721301309 0.43078234793719183 9 115 448
2.162863848406839 5.824374921018327 0.42926000699787026 9 115 458
1.3254265462215282 5.251156031066245 0.32680206402391754 9 116 55
1.4671316689411626 5.743364435747493 0.07341667554228981 9 116 231
1.7240925697472393 5.992265260936002 0.05394510120300855 9 116 338
2.0626496055627075 5.727410844402396 0.43353129041101746 9 116 404
1.5247883491427245 5.800810097241165 0.06363035094332159 9 117 256
1.544433461036312 5.813201818988337 0.06668353370153235 9 117 263
1.5737370907360078 5.834492482148908 0.06931243124799136 9 117 274
1.7437016778715653 5.999374649226387 0.05616295108405689 9 117 344
1.7734871784131647 6.014430080896375 0.06335282433368494 9 117 354
1.7968258414333675 6.041735228926482 0.05834729762784718 9 117 364
2.088426884651668 5.747466722572562 0.4317300637039241 9 117 417
1.4999268315070982 5.750341928602261 0.07936818418369684 9 118 240
1.585829093775362 5.851254836648641 0.0605688703338807 9 118 280
1.6511324690948914 5.902457451317741 0.06384140651139392 9 118 305
1.68419379530472 5.924600239102077 0.06810036892927207 9 118 317
1.329909141090501 5.186790981718325 0.36384636497100264 9 119 30
1.3439677793430151 5.29542203705077 0.2971122494486502 9 119 77
1.4806292477449252 5.728393418516495 0.07883585854814301 9 119 231
1.507903717958218 5.7557081053850006 0.07610218504225252 9 119 243
1.5253962989487766 5.7749786015351 0.07313840574824226 9 119 251
2.1159885125538955 5.750421497772301 0.4395480019288347 9 119 428
2.169349768008487 5.8041881779641 0.43397395051079635 9 119 457
1.3252706993582506 5.201569512920275 0.3476284441414086 9 120 36
1.320069112151582 5.210888193758666 0.3380805354067471 9 120 39
1.457749541707041 5.705730742253664 0.07669575789844663 9 120 221
1.7328321999830396 5.9738896089944165 0.0540215981612151 9 120 337
1.3419493648340075 5.299929789115459 0.2858430330788051 9 121 79
1.5384875145030708 5.769568288063921 0.0760609543904951 9 121 253
1.6403733602652357 5.866939737235884 0.068957534262446 9 121 296
1.3276257547611698 5.219774796924478 0.3297600992224876 9 122 45
1.6755183110530105 5.897577119434095 0.06418553586079523 9 122 310
1.687451195761321 5.915568039084867 0.058747629702526005 9 122 316
1.3336109996133474 5.268130022337019 0.29612022454933395 9 123 66
1.342621140533512 5.276537094837705 0.2956246948224317 9 123 71
1.5533380675366735 5.78689726758784 0.06418601479458297 9 123 260
1.622870084957723 5.852301893019195 0.059993012614215635 9 123 289
2.124387076291544 5.741260834440876 0.43812336121543094 9 123 429
1.3314660825224192 5.2305420156281 0.3178019950904307 9 124 51
1.5244086978505174 5.741252547263465 0.07455492400115071 9 124 244
2.0609430265323807 5.681611830250497 0.4387521096948145 9 124 394
2.079375388738813 5.7042904331367446 0.43387541367819193 9 124 405
2.1415070274894945 5.757790116985662 0.4335722144059253 9 124 438
2.19440974629283 5.8055131773287325 0.4317880130050177 9 124 466
2.2132309449652006 5.823830985319319 0.43021139263836883 9 124 476
1.3268375826927095 5.166247827758179 0.3570004470447097 9 125 23
1.4889368515519779 5.717814301843835 0.0654177862531582 9 125 231
1.5832749090251272 5.786355974853862 0.07388107528494148 9 125 267
1.7159153085929357 5.928144848658596 0.053728991117456104 9 125 325
1.4725860416079422 5.684193266204163 0.07501818051736397 9 126 220
1.6354496453622271 5.841379839648787 0.06211049350936548 9 126 290
2.1012406678468167 5.708887889323483 0.43739609102713595 9 126 414
2.170770151317722 5.776983175152113 0.43118485175479215 9 126 452
1.345196353608557 5.2818516455303985 0.2794639883577097 9 127 75
1.5084305777465539 5.710726922127401 0.07359367345216028 9 127 234
1.661840885108662 5.855431712354296 0.0637299229123296 9 127 299
2.1196446097486605 5.720788686954044 0.4368847631291991 9 127 423
2.161785630767819 5.7615643096854425 0.4334460878859909 9 127 446
1.3262560431854804 5.1723697785568 0.34250723318697873 9 128 27
1.3246170241981317 5.196065076747878 0.32461089571625235 9 128 37
1.3374339382745848 5.238558838998195 0.3020949493515226 9 128 57
1.3475009438550194 5.274446097476985 0.28261921202290274 9 128 73
1.4807068038878177 5.675391773544703 0.07763314144698308 9 128 220
1.680240949919316 5.863684386173237 0.06463688261480627 9 128 305
1.5412185491083776 5.721689038293246 0.0771058280270287 9 129 244
1.6422264425030888 5.827276013826109 0.06312089466824666 9 129 289
1.6672499771516436 5.842697004497524 0.06734124571066036 9 129 298
1.6987893050619476 5.8775717468210775 0.061610564808067814 9 129 312
1.794196224491992 5.960689661948486 0.06029266800435962 9 129 350
2.1392978412355763 5.731195979225754 0.43497516580918616 9 129 432
1.576073782246719 5.759425523951999 0.06700844486618429 9 130 260
1.730241376884534 5.90816636266686 0.05445672233704535 9 130 325
1.7576545897680993 5.9133915770060685 0.06746904162163703 9 130 333
2.071187177242747 5.6655386408308495 0.4372499756132264 9 130 394
1.3431976095222082 5.247891147675348 0.2885275370257172 9 131 63
1.5998235837134005 5.776203176719239 0.06512687995184852 9 131 269
1.6247366637303127 5.791554310481237 0.06934386052918584 9 131 278
1.649091780137974 5.812915618253406 0.06888624171909052 9 131 288
1.3257520179073838 5.191464343432702 0.3151138477175328 9 132 37
1.344131813280257 5.267023422527102 0.27176425671910565 9 132 71
1.6834241912973555 5.831881256140326 0.07191691705884207 9 132 300
1.7212269743138675 5.868494811085562 0.06869088319783612 9 132 316
1.3312810011735206 5.209407847108047 0.30210090503835585 9 133 46
1.3407513973919378 5.275636802301289 0.25986643453156133 9 133 74
1.5035712895578521 5.659631325003154 0.08158943306600452 9 133 222
1.544145745842693 5.712850131091837 0.06799583016504451 9 133 243
1.7081815125120885 5.847552726191743 0.07144375656583746 9 133 309
2.092367746485352 5.672899618189704 0.43533722286743304 9 133 403
2.1242108671176956 5.698774522680518 0.4362054358688665 9 133 420
2.2000667851594735 5.767583641300037 0.4330681864663394 9 133 461
2.217556425890092 5.780290806023691 0.4346372232742831 9 133 470
1.3225763430459447 5.158623239393937 0.3302627621379046 9 134 23
1.4489790786634649 5.6168107604169215 0.0747062721968832 9 134 200
1.5184163042142835 5.670905857128071 0.07827999833759436 9 134 228
1.5353211247223584 5.680454151091012 0.08178834713748295 9 134 234
1.575738835399227 5.729868813820806 0.070807998802916 9 134 254
1.3457451796489228 5.268502981455945 0.26096764941699724 9 135 73
1.6657254485687658 5.796600611175471 0.0735452277529971 9 135 289
1.7376245306902782 5.862482904473623 0.07002030815421056 9 135 319
2.0672857834123883 5.634473450015597 0.4414106833008 9 135 386
2.1062619661151865 5.671887571752759 0.4382572247468063 9 135 408
1.345874688026173 5.244166836420899 0.2753037364794222 9 136 64
1.3431857691675368 5.279435105293759 0.24775237017446727 9 136 77
1.4360822664932014 5.590233466386128 0.07757140347666569 9 136 191
1.4487711585375174 5.599452628966496 0.07870975382795109 9 136 196
2.1675431750484733 5.725855982121571 0.4336124084949382 9 136 441
1.325970206788352 5.174549885557229 0.3105794200107188 9 137 32
1.5557541313936403 5.703947942040496 0.06431759793241865 9 137 244
1.6109766764274007 5.732290534298468 0.07794522695498052 9 137 263
1.62780621160579 5.767171049555651 0.06277529662265979 9 137 274
2.219301039223936 5.768329537952596 0.43142084598272923 9 137 468
1.3310928646477338 5.194764098813 0.29543253928446367 9 138 42
1.3446948041576614 5.263431820123368 0.25321454292398493 9 138 72
1.749247540132209 5.86394818762256 0.06296090448145764 9 138 322
2.087342587065574 5.643833339519321 0.43745655614617873 9 138 395
2.1494656909947913 5.698012973359172 0.4363469692012564 9 138 429
2.1599431848637405 5.70200782858866 0.4399600963079957 9 138 434
2.2469960566507248 5.789674923456452 0.4297261993190017 9 138 482
1.3354008949179113 5.235977319130001 0.2641019711808972 9 139 60
1.5494877348998026 5.668637807288073 0.07781156262820632 9 139 235
1.5875838365681931 5.710759171106712 0.07051931050472815 9 139 253
1.650177127880748 5.775192327669697 0.06207791166828058 9 139 281
2.1211291861698998 5.671453073488021 0.43499700062292035 9 139 413
2.1979537581635205 5.741712754125044 0.43117917066691747 9 139 455
1.328132505219023 5.165918784247357 0.3080670942932686 9 140 30
1.3432720509869056 5.251694942175217 0.25377716775551473 9 140 68
1.3420688966000984 5.276046594981352 0.23489635595099534 9 140 77
1.3530399858886382 5.294828711855863 0.2278351035860693 9 140 86
1.6270787537715636 5.742587067556924 0.06737283097259383 9 140 269
1.6769191077148935 5.782402513906529 0.06916224154257744 9 140 289
1.7188065975965534 5.8173406332971185 0.06956777071177833 9 140 306
2.216705641871558 5.752054026941275 0.43203350048681677 9 140 464
1.3405396738283475 5.180531294430804 0.3015669894980384 9 141 39
1.4543097257416375 5.571613394998524 0.08143201011157641 9 141 191
1.6907354582005754 5.801836666554634 0.05899163459100887 9 141 296
1.7346003757266009 5.834606120036588 0.06225527851058499 9 141 313
2.085206971987673 5.623560517224191 0.44157173187225596 9 141 390
1.328388665387152 5.16829522306907 0.2995704846682168 9 142 32
1.535598003467679 5.6374412398130795 0.07937272240628168 9 142 225
1.575241019652549 5.681500865110761 0.07149426761343292 9 142 244
1.6715819399797378 5.768549351538822 0.06735713386973874 9 142 285
2.100814631646302 5.640656002550237 0.43545792002673456 9 142 399
1.3284206217087755 5.242842364701275 0.24005459536292872 9 143 63
1.6508505049254814 5.73328230078443 0.07629398667608367 9 143 273
1.6685455418131672 5.756887361947361 0.0697967237772501 9 143 282
2.1691979614151755 5.6915861557866325 0.43742768423070744 9 143 435
2.2381985093313435 5.7578418162637846 0.431490756106777 9 143 473
1.3520969060651007 5.311026485552341 0.20001784173130455 9 144 93
1.7272111384018884 5.800807320161088 0.06968919800315354 9 144 305
1.331207408598612 5.20921531517263 0.2599421057260747 9 145 51
1.3378024412638476 5.221145055399412 0.25512648093517964 9 145 57
1.4241446026861921 5.520326160327677 0.08375663933470179 9 145 172
1.4726446888158022 5.573409264095431 0.0745895347181933 9 145 196
1.5757663619219502 5.65725529755187 0.07708174185768657 9 145 239
1.6102015505021605 5.6840588112294865 0.07881920359416106 9 145 253
2.1876091403465225 5.704736356784821 0.4327509300094188 9 145 444
2.257449191754958 5.769754992848009 0.42820196450170767 9 145 482
1.3232293151000312 5.145607495439023 0.2995656444838033 9 146 23
1.445770634377738 5.536529199554323 0.08105663606719471 9 146 181
1.7046994192627858 5.778086600220272 0.06366579514668969 9 146 295
1.5608118649023308 5.627700028691346 0.08130361403495034 9 147 229
1.7591674441641039 5.805590233701927 0.0733312141226734 9 147 314
2.078664371596317 5.595101891708545 0.43968200610332886 9 147 381
2.1309975108350914 5.645567917113779 0.4348836600267878 9 147 411
2.1500684005843267 5.658535107543372 0.43727267435095807 9 147 421
1.335924786221717 5.216378884273653 0.24663201506823063 9 148 56
1.3407097037219948 5.252676657210872 0.22193173422049517 9 148 71
1.3388656991492471 5.283271163149141 0.197315885987851 9 148 82
1.4118232709060918 5.4906277211781145 0.08568408682647921 9 148 162
1.6331647507593345 5.690475003435475 0.07565729809140809 9 148 260
1.7086336946699143 5.756839077712742 0.07359847236515793 9 148 292
2.240883196555305 5.735498024604685 0.4337697480510171 9 148 470
1.326981306087919 5.156796008390064 0.28295614165858973 9 149 30
1.456234374296602 5.526043083220561 0.08298845820014833 9 149 181
1.3352962950271061 5.170918208776208 0.2739390422781409 9 150 38
2.2272489841763257 5.715588745040446 0.4336771227443337 9 150 461
1.3374853401516986 5.202594521180538 0.24728512923252954 9 151 52
1.5632436875317999 5.606487541479666 0.08191279306137966 9 151 225
1.6075918730920578 5.662519319674793 0.06746524714829527 9 151 248
1.6580060344755714 5.70443904582861 0.06789338876617879 9 151 269
2.0868798074643378 5.581279185660499 0.4428151465838863 9 151 381
2.118240618115415 5.610237534600727 0.4408514880510146 9 151 399
1.341972517652192 5.232291866758543 0.2234908573110903 9 152 65
1.6505678279054068 5.679176714597848 0.07824076223649823 9 152 262
1.6850660242572586 5.715683253469119 0.07244968616676628 9 152 278
1.6870287786487386 5.728551043739707 0.06373977907101058 9 152 281
2.1740476702083127 5.659932439067441 0.4355292209799567 9 152 430
2.245972846585718 5.718350855013238 0.43719705873618664 9 152 469
1.3632587936457432 5.422530115177538 0.08542978168369797 9 153 134
1.3839648544901912 5.439330961452512 0.0859181349453757 9 153 143
1.5610599182107914 5.590838496315616 0.0840054347399033 9 153 221
2.135510045946975 5.624346154311025 0.4347226845320751 9 153 408
1.378253687246674 5.42865706509466 0.08625022066396015 9 154 139
1.4521359365340867 5.488473146634901 0.08807837528808649 9 154 171
1.469177267025935 5.512251291703984 0.0806928686155195 9 154 181
1.4913610966528386 5.5283690371518395 0.08268303215071593 9 154 190
1.4962442042189419 5.539806845534235 0.0769496957989726 9 154 194
1.598867555847533 5.625764932245231 0.07724195354306862 9 154 238
1.6231534818151292 5.635519995669152 0.0855921125026311 9 154 246
1.6469290405062083 5.664190919745668 0.07881074928163234 9 154 258
2.0973413969389285 5.577652141225209 0.4428765698522181 9 154 384
2.1943275971578364 5.6656511876801865 0.43786310974352116 9 154 439
2.265964051335509 5.735232280123974 0.4305754642914347 9 154 479
1.3331681283677024 5.136532814715863 0.28154573962189144 9 155 25
1.334221683638658 5.145172656095971 0.27545903723643805 9 155 29
1.3384511583561232 5.166619281923867 0.26141551914722605 9 155 39
1.4023114077977477 5.445750252632119 0.08445403727990697 9 155 149
1.7206955410095854 5.741818732240293 0.062193349609373616 9 155 292
1.3327648291691985 5.232408476390658 0.20220262346846796 9 156 65
1.361599127396017 5.400929621712589 0.08853493612650132 9 156 128
1.622277457410952 5.627001059898533 0.08302932333569268 9 156 244
1.6760944951805303 5.687058863361787 0.07134791585226541 9 156 270
2.114101514401091 5.58615665696799 0.4408327503754199 9 156 392
2.1570245097380596 5.6286941818852085 0.4357408146276589 9 156 417
1.4315611562230366 5.4548692612068335 0.08810647661437421 9 157 158
1.4449637963332063 5.4663499206618145 0.08793090475691812 9 157 164
1.5040285089692529 5.5197213422220015 0.08496184942926233 9 157 191
1.7124490375215558 5.711237757991705 0.07196638740039973 9 157 284
1.3570850676115707 5.38557814468992 0.0891964048011249 9 158 123
1.3930091794665 5.422115782771717 0.084138356651549 9 158 141
1.6775312194225165 5.670583806484997 0.0765398769370722 9 158 267
1.729939732886363 5.713879881572751 0.07710108445887864 9 158 289
1.3343452850961834 5.131714985078391 0.27189663645595075 9 159 25
2.102996361560922 5.565188321284263 0.4403820054943174 9 159 383
1.331808254885762 5.175871111367889 0.23132257069388662 9 160 44
1.3256413283705049 5.195646186932125 0.21138617477161614 9 160 51
1.37955369591899 5.392478286158286 0.0902323694807794 9 160 130
1.5908738498052197 5.584129841554779 0.07873114384276247 9 160 227
1.703136614188534 5.6830202487911325 0.07495740768244175 9 160 276
2.0836735423146746 5.544555404632576 0.4406865404705609 9 160 371
2.214468655033514 5.649980350890363 0.44411343849880147 9 160 444
2.2223426246816085 5.661765210661835 0.43997398233434093 9 160 449
2.231085207438677 5.679378640505787 0.43175905568909734 9 160 455
1.3272618376029734 5.340273627696009 0.09268458847550365 9 161 104
1.4430615733130048 5.443428352139527 0.08781961196028165 9 161 158
1.520289676491516 5.51510048440921 0.0822677108041141 9 161 194
1.641550969426838 5.62741050902387 0.07373268655492549 9 161 249
1.6846552118181233 5.656998997918719 0.07898634181984354 9 161 266
2.1257118407229143 5.57630279333234 0.44026675670914084 9 161 394
2.178360825608314 5.623200627326094 0.4380564942094467 9 161 424
2.2499242069645646 5.68643422567175 0.4354632022466468 9 161 464
1.3313030084690833 5.147853040155734 0.24605017136218743 9 162 33
1.365037195960495 5.357866835221499 0.09977302973529012 9 162 117
1.4646011996798836 5.4586781495757615 0.0857888060978158 9 162 167
2.155653857811926 5.597522230065123 0.4401418380585673 9 162 410
1.435822801731685 5.429609052271007 0.08549707857692534 9 163 153
1.4822721610448186 5.462495892764352 0.09035971697568002 9 163 172
1.6192041610321104 5.592983147750845 0.07760531325347042 9 163 236
1.66141547198547 5.6322626996865655 0.07443694970179338 9 163 255
1.7105338087578312 5.6688109307949235 0.07814791410701183 9 163 275
2.1981167323047925 5.629553842985747 0.4397448872701989 9 163 433
2.2679509220139855 5.700958033398468 0.42931725203503646 9 163 473
2.284655830501731 5.713956062756047 0.4301204144610715 9 163 482
1.4078905306473621 5.400316217719245 0.08599090034661439 9 164 139
1.6025672909220887 5.570977011492976 0.07977097696042068 9 164 227
1.3294216813937005 5.159377049501897 0.22429795320145418 9 165 39
1.309495633626713 5.303558065636258 0.0934350272986062 9 165 90
1.3573946523721743 5.346935395750063 0.09075512596532342 9 165 113
1.4921215928483624 5.467977259079213 0.08400381890723829 9 165 176
2.1708076645550434 5.599166788453003 0.4393214513754149 9 165 416
1.6043030000052982 5.555907719509944 0.08450017054153225 9 166 224
1.6286936331990678 5.582187619319654 0.07970037893255921 9 166 236
2.185926274754217 5.610459913431713 0.43716031784672404 9 166 424
1.4217127566327743 5.388633536044395 0.09212229157800467 9 167 139
1.7394989183511846 5.6818750206974515 0.06954015704591887 9 167 285
2.2904765078943976 5.702094091496799 0.43041793892128044 9 167 482
1.333317579152369 5.168882282348723 0.207813806115817 9 168 45
1.5117718267443627 5.4724316208232455 0.08082476929731097 9 168 182
1.677790840571426 5.622035417939585 0.07188568338218881 9 168 257
1.720902724337994 5.655915784343618 0.0736504167347336 9 168 275
2.1140385061170694 5.53409560013909 0.44398482342488277 9 168 380
2.153464684873347 5.569560176310254 0.4419140394573049 9 168 403
2.3228510954716963 5.726725096197399 0.4290711803368392 9 168 499
1.3413981358929974 5.184027809093723 0.19705234544414574 9 169 53
1.3257446257633165 5.290899675564451 0.09806119940177327 9 169 90
1.3988095115668027 5.359297544413655 0.0919788789481557 9 169 126
1.4793264259169492 5.442467155829735 0.07884245931525302 9 169 167
1.5822521347697975 5.526605763887039 0.08035344487077989 9 169 212
2.098678428077916 5.521561929243134 0.4405055546089379 9 169 371
2.2246781953721038 5.621614359134289 0.44478866427969677 9 169 442
2.2406608081863353 5.634928032479311 0.4448183099502202 9 169 451
2.306486267585643 5.704871444864917 0.4324700898223891 9 169 489
1.3402828423278614 5.308749853683869 0.08910336661451357 9 170 99
1.3655144452421997 5.3219882311109785 0.09558590070983297 9 170 108
1.503691298767912 5.455490250159025 0.08055907917175187 9 170 176
1.5231772683948 5.473043715103771 0.0794945516333363 9 170 185
1.5449194408605453 5.488840572868188 0.08144509306576775 9 170 194
1.619689554740365 5.555899329253512 0.07760561054938564 9 170 228
1.6515409697833958 5.587530593450619 0.07343155237709187 9 170 243
1.7004670107570001 5.637510120116792 0.06586724934908572 9 170 266
2.131978129147753 5.544378841886521 0.4413894058221721 9 170 389
1.2970882679096247 5.251571037918506 0.10240544417842101 9 171 72
1.3082738914429162 5.271558998567003 0.0935495766099852 9 171 81
1.3830306113920567 5.338582037943761 0.0896925459231579 9 171 117
1.3929476044935063 5.348328939310278 0.08846947953566531 9 171 122
1.5946304336566266 5.526209488197885 0.08050589474728032 9 171 215
1.6421257237370739 5.562411785761443 0.0833583414766812 9 171 235
1.334038004969441 5.16901174228742 0.19278429627400628 9 172 47
1.4247556432054211 5.365973269231625 0.09159626100986729 9 172 134
1.4494682739159606 5.39576517583315 0.08393859224429723 9 172 148
1.4709454514833005 5.411369500550329 0.08586536036108905 9 172 157
1.6164768778910585 5.541624935759429 0.0784667355810571 9 172 224
1.6865697913892896 5.597624158178284 0.08052291070979645 9 172 254
2.1829409379866513 5.583714296159244 0.43751583281768947 9 172 417
2.2083411568588898 5.602168921396991 0.43979454619746716 9 172 431
2.2751641319623532 5.662556157441568 0.43591477955880487 9 172 469
1.375219236021643 5.3135581738684765 0.0966153938952008 9 173 108
1.4023053981083686 5.340831461376162 0.09268759588502817 9 173 122
2.117220356401547 5.521910467793522 0.4400996732978024 9 173 378
2.136487821549258 5.531690554207158 0.4453603112526262 9 173 388
2.151613016769017 5.551961141745929 0.4389465560666266 9 173 398
2.2263863686865535 5.610506767198012 0.44212254100744386 9 173 440
1.447824001191806 5.37856929575316 0.08857161599345642 9 174 143
1.4744885384735857 5.400468496924512 0.08884128750928766 9 174 155
1.5385779898472378 5.457979214589427 0.08539323736831772 9 174 185
1.6736465532676112 5.584742541468816 0.07345511637322977 9 174 248
1.7110451309409576 5.624544924269831 0.06619755916317982 9 174 266
1.738173584489875 5.639203042997186 0.07287641890950569 9 174 276
2.318715214693028 5.696402651644736 0.43131089689409274 9 174 492
1.3427773281792341 5.275791341811367 0.09714685181136984 9 175 90
1.5930856618657359 5.509751741529569 0.07566925859178819 9 175 211
2.192899742884006 5.580023384739658 0.4377217703821946 9 175 420
1.3625751456391604 5.2965204653305555 0.08930512439399929 9 176 101
1.385535829835343 5.304817081854111 0.09846189119219062 9 176 108
1.7176053696072122 5.616522190490667 0.06863853749301119 9 176 266
2.2966959951445434 5.666620742708435 0.43427385480084946 9 176 478
1.5221280296657063 5.4363243762120534 0.07905074795296851 9 177 176
1.7165945315643094 5.603556208602287 0.07446264276053016 9 177 263
2.173319536922394 5.555473407445893 0.4381312839514654 9 177 407
2.2328239453602428 5.597869797471379 0.4441802943083162 9 177 440
2.251202477472941 5.617917395005385 0.44014281268637767 9 177 451
1.4408856653657756 5.356806782732417 0.0848535574273801 9 178 136
1.4663387720420404 5.369454218050947 0.0921200921908718 9 178 145
1.5071511446283932 5.411632964087497 0.08510340827449636 9 178 166
1.5431034912729582 5.444435024112673 0.0826337966938604 9 178 183
1.5762054004953943 5.4651449186815775 0.08845097984265182 9 178 196
1.744826902881617 5.626071727018085 0.07083233340186079 9 178 275
2.1039213881227283 5.488634491287425 0.44261010664858236 9 178 365
2.268447682083859 5.629048963618623 0.4395733843723987 9 178 460
2.3400716403846977 5.7019649916121224 0.42820209018361455 9 178 501
1.3573520909463281 5.269863772516819 0.0954872926185335 9 179 92
1.5908577222859677 5.486186285636846 0.07650982151972285 9 179 205
2.2025460317672305 5.5722662191393955 0.4379590854029406 9 179 422
1.3274567824775838 5.24111627986078 0.09457090150530845 9 180 77
1.3763938820028705 5.279166612910625 0.09681899658686954 9 180 99
1.3941305152905525 5.302032723937917 0.08984160790543938 9 180 110
1.407088796021676 5.318932206798989 0.08457770920035679 9 180 118
1.4257295746856382 5.335802298882291 0.08339376596140191 9 180 127
1.6164826609532352 5.497680225868458 0.08051325512373353 9 180 214
1.6567283503843555 5.536068810320972 0.07626920580679575 9 180 233
2.122118480557193 5.497472749485303 0.4414854866392307 9 180 374
2.1933307627728476 5.561686693823003 0.4371633569815586 9 180 416
2.287148788225048 5.637335229645832 0.43915349104697454 9 180 469
1.4390984990707065 5.339287250063889 0.08562400634466338 9 181 131
1.574884734042298 5.457030828088338 0.08135747555405626 9 181 194
1.63415770731866 5.516693804071697 0.07237211139923327 9 181 223
1.6875767305790674 5.567954003117038 0.06643736005911527 9 181 248
2.2152145777055114 5.571219554292279 0.44130739612513026 9 181 427
1.4700178497616658 5.353881185028929 0.09086981183948639 9 182 142
2.1405787653581068 5.505674129012331 0.44110065661635434 9 182 383
2.1562783397162852 5.5179088163139784 0.44179292397933123 9 182 392
2.172831889415561 5.534076667135074 0.43969683381404223 9 182 402
2.2706517024589874 5.615085938895898 0.4398777410958603 9 182 458
2.328895908653062 5.678935721252652 0.42648096184526674 9 182 492
2.3457923384587334 5.687899280555804 0.430861664589298 9 182 501
1.317676290239258 5.212206871082347 0.0997729723859686 9 183 66
1.3636563786260716 5.253878167905228 0.09672476046359191 9 183 89
1.4790396904592864 5.363329686838662 0.08483913377169183 9 183 147
1.500188779248055 5.378695637410968 0.08673646827244874 9 183 156
1.514288171773901 5.388939604459173 0.08800135793962016 9 183 162
1.6834191392124958 5.54570597560171 0.0737643660508891 9 183 242
1.334205614145159 5.227981473390869 0.09372678881624918 9 184 75
1.3475971643313875 5.241009901861695 0.09205457393228733 9 184 82
1.5579567103424394 5.435906991258669 0.07428752261154914 9 184 185
1.7039227941185964 5.56257671491047 0.06942216888822461 9 184 251
1.380718227594736 5.268804647786616 0.08747507890044615 9 185 98
1.3992818666083922 5.28229213003112 0.0891404666205502 9 185 106
1.4365251791136937 5.318404045217989 0.08456712932657351 9 185 125
1.44501548800313 5.331979349833336 0.07885335890986211 9 185 131
1.5381023462079886 5.407841601244809 0.08000941068346168 9 185 173
1.593098827601837 5.461789972960371 0.07271172408261384 9 185 200
1.6284978635469893 5.48421736096721 0.0787655020147291 9 185 214
1.6460198826052876 5.507646604468686 0.07098394040691325 9 185 224
1.724588524826916 5.579544324258999 0.06508152033857395 9 185 260
2.3102524784521927 5.63554941065966 0.4406781363295659 9 185 478
1.5163181137699506 5.378419197788116 0.08558641393522515 9 186 160
2.2315016354764254 5.564618041295751 0.4423065117754402 9 186 432
2.246763599426526 5.578991567151733 0.440793378043273 9 186 441
2.262955187064964 5.5899344533995965 0.44296650060873 9 186 450
1.4780380101039365 5.3411540975371965 0.08610356132790509 9 187 141
1.5556222066778622 5.410635122041652 0.08151701826202284 9 187 178
1.6026031784869954 5.456242375997361 0.0756282416134828 9 187 201
1.7306611523534237 5.572229386149425 0.06690960941929802 9 187 260
2.115017982128425 5.463861646325054 0.4427454401759203 9 187 363
1.6368576276280673 5.47901323889612 0.07613241177603225 9 188 215
1.7023909974769569 5.524173436271059 0.08417988647097974 9 188 242
1.7131103016042304 5.551587958153799 0.06779513723937813 9 188 251
1.3885406778968665 5.249147187068601 0.09326812546951602 9 189 94
1.3967476663286518 5.259190179123176 0.09038510366536734 9 189 99
1.4188886009110568 5.279356932535324 0.08875212894491602 9 189 110
1.435277957811899 5.288000581969092 0.09311785421845031 9 189 116
1.4394919220272673 5.297590453443247 0.08770510382807228 9 189 120
1.5031422259611236 5.351996169916696 0.0861767422274784 9 189 150
1.618308695079489 5.452807572006968 0.08130754437361709 9 189 204
2.200193143691317 5.525498683989256 0.4440451630346016 9 189 411
2.296007500204741 5.610617685407793 0.4388875403981535 9 189 467
2.3680419015092076 5.674378999490334 0.4352159383772316 9 189 508
1.5927961484983566 5.425655650978706 0.08225928417853234 9 190 191
1.6409266470826298 5.470396655602385 0.07787782834780521 9 190 214
2.152582781731015 5.487106211977977 0.43985722930109994 9 190 383
2.2177373390022956 5.533630258281521 0.44642729381323665 9 190 420
1.341822720705971 5.192464810495853 0.10075367663594581 9 191 66
1.466182225423076 5.310446116411853 0.08722493166203704 9 191 130
1.6712887961420886 5.492782479334102 0.07585795036271725 9 191 227
2.1694871861860476 5.497219237840675 0.44000936825218384 9 191 392
2.185515917522669 5.508052461471839 0.4421733290624851 9 191 401
2.2851667354716674 5.591830081395108 0.44094874724396904 9 191 459
2.3476425844615747 5.64859818366821 0.43638902496907606 9 191 495
2.3868249950693246 5.6803165536037525 0.43700005560462074 9 191 517
2.1459334037577964 5.441449523452776 0.46925263758241587 9 192 371
2.27080245571836 5.576769673321668 0.44046293123565794 9 192 450
1.3616566554350213 5.205318256855701 0.09536761641378133 9 193 75
1.5344830276803614 5.353540877493067 0.09048218080610182 9 193 158
1.5409926083056198 5.365552442730895 0.08451216467004596 9 193 163
1.5787640312995708 5.40270465643413 0.07916214011350364 9 193 182
1.6936132390193563 5.49423983546823 0.08218336174650442 9 193 233
1.7352777909398869 5.534517255345339 0.07242033480419052 9 194 253
1.771285015849228 5.564715305190924 0.07200409332199253 9 194 269
2.3241090438718595 5.612742085624742 0.4410359220680149 9 194 479
1.4563117029579027 5.282166381090459 0.08790730949775494 9 195 120
1.7084556317889468 5.503227590364687 0.07619910995982093 9 195 239
2.240170854720616 5.534259528003315 0.4460057457146581 9 195 429
2.2550081672435724 5.549067835947034 0.44368485274130776 9 195 438
2.3832840397144985 5.658379966305747 0.44058485026627126 9 195 512
1.3312563827467525 5.165154209881695 0.09611532378252874 9 196 56
1.3412959635995994 5.17646804584084 0.09335856615966609 9 196 62
1.3818215386912258 5.203500312491685 0.09918868748415388 9 196 79
1.4972708872934053 5.314713406672865 0.08467532993746052 9 196 139
1.5663225297622474 5.3753339634405615 0.08136077446950818 9 196 172
1.6110318973524926 5.414249007726047 0.07951984830149827 9 196 193
2.183792172243791 5.484709292126385 0.44544302363544475 9 196 395
2.200192784109737 5.48135100338648 0.46081256795774084 9 196 402
1.545007087193202 5.352962259412845 0.0813034645273285 9 197 161
1.6460463551705482 5.427977054611412 0.08890280002475182 9 197 205
1.4035914966679042 5.220936228913591 0.09102524961711911 9 198 90
1.439318627485075 5.247694297236862 0.09349680108398406 9 198 106
1.4502167595932942 5.262015942252529 0.08860515305960504 9 198 113
1.5192398909616394 5.320969874779754 0.08672702009559186 9 198 146
1.583745678408779 5.381444316791738 0.08004168236064801 9 198 178
1.6144845799553875 5.402977300635575 0.08353304245411297 9 198 191
1.6481857391076102 5.433066185234463 0.08142072109544052 9 198 207
2.2115291072840213 5.482966037563379 0.4613759059914515 9 198 407
2.3668966599602785 5.624664920109234 0.44890228541387645 9 198 500
2.226520442543174 5.4973441712864375 0.45625346798799327 9 199 416
1.4896622157291124 5.285027645936017 0.08859123991237028 9 200 129
1.6636662273049294 5.440939203859518 0.0769751956808189 9 200 213
2.276458820527782 5.553028530128333 0.43953404479538016 9 200 447
2.2971917821804 5.5696861751583375 0.4399222863915977 9 200 459
2.347157261662228 5.613161552937327 0.43778223273862804 9 200 488
2.3784864003129953 5.6223752401098785 0.4531021992825732 9 200 505
2.405294580048121 5.657792396634771 0.4407903142970103 9 200 521
1.5099763168936113 5.296167877994605 0.08937430721368056 9 201 137
1.552522991087454 5.344575818115842 0.0769786233522971 9 201 161
1.6988063893140692 5.465968215598361 0.07610031621702484 9 201 228
2.187902126337546 5.4356277770818995 0.47739219944813116 9 201 387
2.1994322937731208 5.455933852103506 0.4673724810857083 9 201 396
1.372281877036154 5.179813706055125 0.08779258405954149 9 202 71
1.3851682487419659 5.189969899922441 0.08821059054905644 9 202 77
1.4061843540696288 5.204445679166504 0.0908340550174247 9 202 86
1.445682273477272 5.24028472356497 0.08773522817018442 9 202 106
1.5365290565896634 5.3189859628564005 0.08407695899654888 9 202 150
2.42009021676283 5.660992131535765 0.4423170536548543 9 202 528
1.4211689547879267 5.212540209392641 0.09042164580384338 9 203 92
1.5947914874858593 5.369565852557603 0.07717220128888758 9 203 178
1.702658291368421 5.457438246400095 0.07797982593014119 9 203 227
1.7564507464790957 5.509189899860993 0.07097980146247918 9 203 253
1.7720006375645516 5.513361642180003 0.07902690488854747 9 203 258
2.137924396151245 5.396794178247943 0.4688475193121123 9 203 356
2.316543271951857 5.575660831948791 0.4390467384342158 9 203 468
1.523547262179036 5.291241466719359 0.09118763743675107 9 204 139
1.7269951487732809 5.4730294298134385 0.07761061140047221 9 204 237
1.7379130812390096 5.486492219914768 0.07340867040792265 9 204 243
2.2482610157690868 5.498604811417889 0.455246379860353 9 204 425
2.2622398696809225 5.515081612369959 0.45057880145721463 9 204 434
2.394573593548766 5.631770495175502 0.44320541678194547 9 204 512
1.53229676979766 5.300308473293289 0.08501701256823369 9 205 144
1.7111488090148166 5.452326987214765 0.08030599025099239 9 205 228
1.400036478391249 5.17622317677992 0.0951338439911793 9 206 76
1.643858143550458 5.39191542112146 0.08063078409115221 9 206 196
2.346018667311531 5.59137170576626 0.4368652491798414 9 206 483
1.4388033750256664 5.207903376855181 0.09092462801934564 9 207 95
1.4591352471037982 5.228169520729356 0.08754434857304272 9 207 106
1.4702033875201117 5.239350584161142 0.08556334874064286 9 207 112
1.482564259201365 5.2499011075663935 0.08518534155669388 9 207 118
1.5827761915472407 5.338407506361031 0.07930611189214254 9 207 167
1.6286805373714899 5.37175948270547 0.08342429872926438 9 207 187
2.1970074885444495 5.420507922985282 0.47938245095921583 9 207 387
2.2157803574084505 5.443565627105113 0.47214494021075815 9 207 400
2.370237290755695 5.6036629993224105 0.4406496035509109 9 207 496
2.3776107394980937 5.605095946500459 0.4450284624377686 9 207 500
1.7067309344807542 5.431896372447718 0.08268589911375002 9 208 222
2.2313725222664074 5.454407623397543 0.4707631715091807 9 208 409
1.4220516683088111 5.189393571211136 0.08667140352113667 9 209 86
1.6105613240484091 5.346671988039384 0.08419611218824552 9 209 176
1.6601092104073747 5.387359553266225 0.08416721345754596 9 209 199
1.6745594335677192 5.404109534198181 0.07949833171671883 9 209 207
1.6869480375575001 5.415454701707613 0.07837276444066865 9 209 213
1.6938188174971531 5.424353629104037 0.07526089110028322 9 209 217
2.3854493483007624 5.601803002219293 0.44750082357475907 9 209 503
2.42794539231423 5.649869164643518 0.4349088858704184 9 209 528
1.3865340589235018 5.149116297643134 0.09293927821956638 9 210 65
1.4819035371552 5.230102176329005 0.09029395035489518 9 210 112
1.5081205319631663 5.253048507555704 0.08891222259878617 9 210 125
1.5753821144319098 5.315171779249308 0.08225180068491178 9 210 159
1.7285879124361228 5.445195804725425 0.07807436284734304 9 210 231
2.1867863403692605 5.402307608747469 0.47911098476371206 9 210 378
1.4077518702146588 5.167226606410949 0.08787740644087161 9 211 76
2.1674780660441186 5.393258692745054 0.4693765685549446 9 211 367
2.2363276874430253 5.4448374724171416 0.4740575819109154 9 211 409
1.6260985338007123 5.346389767695834 0.08325992987308406 9 212 180
1.4383452702638837 5.185476978366775 0.08564563135494252 9 213 89
1.4945420427239404 5.223209162207146 0.09368719030785821 9 213 113
1.5360166047282384 5.266508425593407 0.08465777587547918 9 213 136
1.5467283118763058 5.275065459352515 0.08486878944510923 9 213 141
1.5944407049865899 5.319024646138999 0.08014895870059369 9 213 165
2.2530865100544877 5.453706678165644 0.47224350346331134 9 213 418
2.26570020724085 5.472939176829307 0.46362492727657545 9 213 427
2.405671052251024 5.604064937380724 0.4476815474040057 9 213 512
1.3960572000302824 5.138076742985928 0.09363136182201948 9 214 64
1.5208177097586049 5.244949233646168 0.08905073668896013 9 214 126
1.5639867955476432 5.290995641731573 0.07865262921186722 9 214 150
1.649981225565031 5.357338847483497 0.08261188034711298 9 214 189
1.6795820973440472 5.378845473002753 0.08526744417966126 9 214 202
1.6889250047373188 5.392072210687214 0.07530945168294445 9 215 208
1.713724839353779 5.407006597316107 0.08054312522686313 9 215 218
1.46652526950158 5.19303585533502 0.08747235302591938 9 216 98
1.6748202167378552 5.367451248838121 0.0835604378915622 9 216 198
1.7616034844393003 5.445889173297582 0.07628033230268816 9 216 240
2.213890678596766 5.399869872789704 0.4837046742441895 9 216 389
2.2266212112430384 5.40988849511408 0.48409353231776997 9 216 397
1.5654162439319106 5.272107144760705 0.08480341836463667 9 217 145
1.6234538445814684 5.328090110259684 0.07643140116793568 9 217 175
1.6560524767326816 5.347169655297145 0.08388207680357151 9 217 188
2.3818590553880634 5.5753443031630425 0.4395987145976292 9 218 495
2.3935983634965146 5.587702521350026 0.43687456866244423 9 218 502
2.426319982735867 5.614539776061831 0.43678820255279227 9 218 521
1.434223102511483 5.14678079849958 0.09374740214007193 9 219 76
1.501057106391268 5.199923623591456 0.09520398506213912 9 219 108
2.2442559658350696 5.416698414266306 0.48189952658800983 9 219 406
1.4520136752560924 5.148501206897947 0.09324340604248782 9 222 81
1.489475358773833 5.186343318698141 0.08596664098816742 9 222 102
1.554038693347156 5.244635049845299 0.0803614626826521 9 222 135
1.6178071179168676 5.289448525584684 0.08760190084878006 9 222 163
1.6213233133112284 5.296556374728118 0.08335847859010892 9 222 166
1.707938374624994 5.375423105994876 0.07517265356331171 9 222 209
2.215435821894184 5.393550682867033 0.4717388403387319 9 222 387
2.2597180411987026 5.424206382357175 0.4772311251963298 9 222 414
2.2732997746758605 5.438627476786969 0.4738906154568294 9 222 423
2.4087595648172697 5.5840959985102065 0.43893418139701146 9 222 508
1.542697793249774 5.229843003247114 0.0814082285995783 9 223 128
1.654808735995063 5.327197483827341 0.07548681381661182 9 223 183
1.6905088606502783 5.353892624489912 0.07792870016346432 9 223 199
2.4281145989565966 5.5939106889948285 0.43799844537851396 9 224 518
1.4791344294831021 5.156288456330954 0.09436563264447262 9 225 90
1.4986205034032212 5.1787365350618595 0.0877197502613738 9 225 102
2.1933908165608402 5.3737661623206545 0.4636794359269828 9 225 372
1.575961330416809 5.24272921827251 0.08224430781226899 9 226 140
1.6872473190887147 5.329835899980883 0.0813142635233548 9 227 192
2.1937727364453057 5.375265557656121 0.4558220214610904 9 227 372
2.2105731770370927 5.380720176465215 0.46421661586789575 9 227 381
2.3943260692910604 5.553987394044744 0.440142227983481 9 227 496
2.44698438284498 5.595997513846993 0.44103998256558374 9 227 527
1.7406321576053148 5.376329631297352 0.07363091649790232 9 228 218
1.7618814957119011 5.390271491934675 0.07706994450642535 9 228 227
1.5863222054335346 5.236776667662641 0.08335434589667057 9 229 141
1.6118825942490043 5.259828139252448 0.08104269874486136 9 229 154
1.652611302253102 5.291659973469863 0.08239420206236936 9 229 173
1.705776724715994 5.337754910327294 0.07948930856529879 9 229 199
1.4845484452065139 5.140723444073063 0.09248309350984973 9 230 87
1.5796976425615439 5.216559573764087 0.09410224915784537 9 230 133
1.5828117616635335 5.226272222838469 0.08669623779588842 9 230 137
1.6334237698397223 5.275709677210688 0.07817162168964376 9 230 164
2.4332543156138198 5.576706592780802 0.4388970464511094 9 230 517
1.507757699066467 5.160095368733287 0.08748318212821138 9 231 99
2.2836205409675148 5.408652523242607 0.4834104355318348 9 231 421
2.4140804209900537 5.557697738260544 0.43893140650063045 9 231 505
1.6522067204047324 5.280136371266242 0.0802426197521795 9 232 170
1.6768877187764846 5.301034667796751 0.07937388234811538 9 232 182
2.2990637580099955 5.4253168351018095 0.47584854019144585 9 232 431
1.7022547610563525 5.310792212518422 0.08609136329199374 9 233 191
2.1880249848179543 5.345611633391882 0.46154873705134647 9 233 362
2.4467820721652913 5.5772614351046315 0.43922572002831173 9 233 523
1.7415481957896257 5.350623834504732 0.07320743013896824 9 234 212
2.2031109478057305 5.356052927453665 0.46010084745857527 9 234 371
2.3992282017567668 5.533232305461567 0.44136881336506384 9 234 494
1.6335520004221284 5.243104121890399 0.08483184032948676 9 236 155
1.656616728073051 5.270881084616288 0.07527487241475295 9 236 169
1.6882053846682339 5.293097294528892 0.07888387931620788 9 236 183
1.618420383422478 5.22499477244042 0.08642153377045769 9 237 146
1.6258643615474195 5.231351263262121 0.08149975243134788 9 238 150
1.6883298560707214 5.281853913589226 0.08166280713676932 9 238 180
1.710976923516431 5.304157343854254 0.07747654853934671 9 238 192
2.4538916143501117 5.5690128118692535 0.4363739526289011 9 238 524
1.5927597351872287 5.198017898303125 0.08382617759975886 9 239 132
1.6096930314099727 5.211050212691155 0.08456701253224752 9 239 140
2.4349057481767242 5.5472922366885715 0.4395821218309999 9 239 512
2.195474022190952 5.33123248979292 0.45966450041249307 9 240 361
1.6773710874169308 5.262076550948989 0.0794331263675283 9 241 172
1.7145855379985697 5.292744607485677 0.07886909168570866 9 241 190
2.1655145664230204 5.300223897296945 0.46353542175853146 9 241 340
2.180166612317859 5.3035343667278925 0.46271005813464594 9 244 347
1.6621252330392338 5.229334890657834 0.08299498599938748 9 245 159
2.2017994385305024 5.317290730316332 0.4634171676087607 9 245 360
2.4198539848093743 5.516703398474678 0.43824082256461183 9 245 499
1.6777382912957142 5.23941942179833 0.08112904935729737 9 246 166
1.7103920443642442 5.262593425060464 0.08000059961345629 9 247 181
2.458580602886184 5.543582976302464 0.4359753784871713 9 247 521
2.4669387453673965 5.550371207563942 0.4359381048352833 9 247 526
1.7043702837253574 5.245848669367196 0.07910218677987846 9 250 175
2.702826676540825 6.093844870952642 0.021843952029107605 9 252 621
2.1845820855562232 5.279925877867232 0.46232044312881404 9 253 342
2.199193254203836 5.289131368964466 0.4652184332564776 9 253 351
2.4434853165644967 5.511047966826864 0.43713741748989776 9 253 508
2.7168024144020144 6.102403634731947 0.019619805509656807 9 253 626
2.2093404129303207 5.295272226921252 0.46411675201781366 9 254 357
2.460524856204985 5.515129566246393 0.44086885263875764 9 255 517
1.7307346173211815 5.244651285204553 0.07608762989341167 9 256 182
2.732382682121112 6.099096389836526 0.021713744856297845 9 256 631
2.190950550723713 5.263195019236081 0.46677699177067444 9 259 340
2.457518964778891 5.50069745889386 0.43660593772618916 9 260 512
2.702650481989896 6.043336100973383 0.03714893144400322 9 260 618
2.727793220843508 6.069033370559623 0.025520378886751516 9 261 627
2.0048726598433597 5.109844297353978 0.4609323339312138 9 262 213
2.206860981887416 5.271770233615824 0.4613781516839024 9 262 349
2.222741519442372 5.278635771153349 0.4648122405519599 9 263 358
2.1833866153938972 5.237473074213552 0.46574672816987106 9 266 329
2.024630761386081 5.112741418602042 0.45920856678374433 9 267 222
2.710062156925077 6.024737652694673 0.028912745322442923 9 267 617
2.7348632236426615 6.047523312611807 0.02547570545457689 9 267 627
1.9908979373968692 5.083638136753508 0.45824076373877676 9 268 198
2.199138249355708 5.245123582584289 0.46477324282888977 9 268 338
2.007857795830461 5.0927344669560295 0.4602074751334354 9 269 208
2.0469968181540605 5.129300474701855 0.453986174999906 9 269 237
2.468529757568223 5.48027822106856 0.43827422685597506 9 269 513
2.7191462507281168 6.02073320040027 0.031717266426195545 9 269 620
1.980416394127218 5.068226494943019 0.45981934712617856 9 270 188
2.062469066044854 5.1373021975605955 0.45581061447380977 9 270 246
