1.0507667464761754 7.4246144694315035 1.1741054092912855 9 5 41
1.0570474507475291 7.457948627695105 1.1673497851256633 9 5 45
1.0910537302680423 7.427078633924896 1.1712695735382346 9 5 52
1.1251508537183452 7.425269149126301 1.1696157735238824 9 5 61
1.155950066869234 7.421897159233834 1.1684548555714223 9 5 69
1.2550759173457307 7.39765157598125 1.167284713362057 9 5 94
1.0965636659186122 7.427030716551343 1.1634842193404735 9 7 54
1.1890921206148763 7.416880141946063 1.1599808369886628 9 7 78
1.290274251275445 7.398647141674095 1.153782770713929 9 8 104
1.03150081591055 7.439624521526204 1.1573845357755435 9 9 38
1.0206535330525202 7.430690539475997 1.1523039579612155 9 11 35
1.2678907265553807 7.415035232631993 1.1329252624448978 9 13 100
0.9825286881928725 7.397753736872552 1.150105104766584 9 14 23
0.9895661861665015 7.411445524982 1.1468631058005383 9 14 26
1.3003394626547533 7.41312249358206 1.1198546684001434 9 16 109
1.3141261102689268 7.394539760231712 1.119060093021421 9 17 112
1.2591726382109119 7.4181151511599746 1.1136690752173046 9 18 99
1.2998404569150428 7.401112707491029 1.1108966403968084 9 19 109
1.2731797312880162 7.418960586294401 1.089364103577418 9 24 104
0.9613728246344533 7.413990119661609 1.0912999802493388 9 29 23
0.9682147013213218 7.3924053665844 1.0843464773605715 9 32 24
0.9436132106678563 7.443240321355246 1.0545152871030399 9 37 23
0.928144103851891 7.440607484628966 1.0522667931268823 9 38 19
0.9149593918894632 7.463462173416593 1.0396558564245115 9 40 18
1.9045817758653152 6.403213343956342 0.2511542573056731 9 323 303
1.9051284930573797 6.411378132403191 0.23448136890841154 9 325 303
1.1489092761650186 6.279174916483814 0.47482857666183476 9 328 58
1.195483915798722 6.265475502630147 0.47841084561840885 9 328 73
1.8607702159857604 6.407186535502419 0.2319450498237663 9 328 291
1.8818248291896806 6.4018825368131935 0.23278023898305156 9 328 297
1.8694863785116282 6.39018853154932 0.23589987197441298 9 330 294
1.2044957941069123 6.255793244986634 0.4734199109828592 9 331 76
1.122806213781483 6.266500082127827 0.4749534694226445 9 332 48
1.8442095637067921 6.392258333561276 0.2292213528618361 9 332 287
1.921233089703092 6.405021416378557 0.20357857883724906 9 332 308
1.8772338577694196 6.405829400464986 0.2013344523165579 9 334 296
1.18300143159261 6.237835625570842 0.4776583554224978 9 335 67
1.1559213599065143 6.233354557356195 0.4788883274451541 9 337 57
1.8508911638572927 6.402974195806456 0.19430266909385274 9 337 289
1.1690669800850295 6.231613622207625 0.47405730401019497 9 338 62
1.8716958378101922 6.398208224323777 0.18501604609805877 9 339 295
1.9401101812017352 6.390450203513872 0.17921807682448465 9 339 314
1.33929336798463 6.1676061682119645 0.4888680520764017 9 341 118
1.8884583935106147 6.388896925913703 0.1806496919081919 9 341 300
1.9038139744569347 6.395901463711974 0.17127821171406898 9 341 304
1.9144807041284335 6.393237069366327 0.17171121555723 9 341 307
1.9253272668813792 6.392041785250103 0.1707555539945984 9 341 310
1.9361841118574006 6.390844835401121 0.16979947759609204 9 341 313
1.365226996725088 6.155990459633618 0.486918552245756 9 343 127
1.7093523823426273 6.425969580612376 0.17063314798521834 9 343 250
1.7236987796091814 6.415907716066755 0.17723550439484592 9 343 254
1.7947111472248893 6.4110672733604765 0.15830987755712744 9 345 274
1.8190213594749391 6.392515452981235 0.1709809714022139 9 345 281
1.3392531724324215 6.154344723535917 0.4817777552740048 9 346 118
1.8263448228752979 6.398876046514172 0.15869847881470456 9 346 283
1.8587891616858983 6.3952929184485985 0.1558119555850066 9 346 292
1.1597036147539028 6.187934462997731 0.48094905799024623 9 347 55
1.7506359281689245 6.408934499635648 0.15890865301182 9 347 262
1.786584432938134 6.4062095062025435 0.15453101229153132 9 347 272
1.2937584351110707 6.150374165797149 0.48653619613724697 9 348 101
1.869657158544387 6.399683120662971 0.13964521753186387 9 348 295
1.73552883352317 6.41798098410429 0.14336718625866052 9 349 258
1.8046777349493381 6.418948522136315 0.12901952437613562 9 349 277
1.1854751967737527 6.175523086087583 0.47596442329429234 9 350 64
1.3215497400061302 6.132559988108297 0.4902888314202427 9 350 110
1.3407744633936383 6.129852850439982 0.4891166124920381 9 350 117
1.1544345167256143 6.178748297264434 0.47503790859516615 9 351 53
1.7532661089921864 6.44405268482534 0.10504029871839604 9 351 263
1.1695585995094409 6.1714729588374455 0.4751169728982556 9 352 58
1.2494509746732962 6.137803448322771 0.4878251586568949 9 353 84
1.2755249687525745 6.130169207198485 0.49002986479881705 9 353 93
1.2912595670666573 6.127251839545296 0.48588601365540796 9 354 99
1.7939468603448998 6.474834629585591 0.04671528016001458 9 355 274
1.8277717480819617 6.464343203364701 0.05016819993422117 9 355 283
1.9028654990851037 6.44644777130633 0.052618507484587296 9 355 303
1.9796088821753919 6.441525190346418 0.04220468796390797 9 355 323
1.3168439900158404 6.107737646724886 0.4920016789824426 9 356 107
1.7702146161873658 6.471113940212267 0.04445997512481803 9 357 268
1.9210799154949805 6.44110654645611 0.04365605681631601 9 357 308
1.9812265224678864 6.428845215694388 0.04362555185812922 9 357 324
1.2603408813449644 6.124305779432886 0.47941751771381025 9 358 88
1.3691951956027237 6.0922943059818255 0.4889581758835295 9 358 126
1.8070916741650629 6.452806437696827 0.04968512898393418 9 358 278
1.851960955233983 6.441819567394957 0.05146212978446174 9 358 290
1.9515916380984137 6.412197082011348 0.06051014452171599 9 358 317
1.341032804502406 6.097260219753584 0.48589235445494405 9 359 116
1.7502726042321481 6.460866596053291 0.04788724373434938 9 359 263
1.8848434008252393 6.429390710081946 0.05180014955359913 9 359 299
1.9862106042305419 6.413404339951849 0.047182776088696254 9 359 326
1.2299055829192382 6.118571464185086 0.48339702410525764 9 360 76
1.7910492728398761 6.4484880485047436 0.046596956686303814 9 360 274
1.8213204669264058 6.4474509377265 0.04154346562592637 9 360 282
1.898493027477947 6.416762647364906 0.05622104741228995 9 360 303
1.1570594099405 6.1381263280948115 0.4749122105292263 9 361 51
1.1943205749013186 6.128516071134493 0.47689139942728187 9 361 64
1.2796228051411047 6.099316840204437 0.4885202960301893 9 361 93
1.7155860864999137 6.458434290891819 0.04670011116556405 9 361 254
1.912855347215925 6.411341335226174 0.05344526738483735 9 361 307
1.9528401322703381 6.397585720136838 0.05896396026820838 9 361 318
1.3669666980648771 6.080638500831064 0.4855385104646983 9 362 125
1.9870666386967188 6.397375428193357 0.0470508344798235 9 362 327
1.2896310533548778 6.087862115397765 0.4901833863257439 9 363 96
1.312202558012104 6.088918256894464 0.4845669708004665 9 363 105
1.6624586572911957 6.45787508510832 0.047443613245199856 9 363 240
1.7333629744017873 6.434942866350391 0.055857116143496865 9 363 259
1.1873775348619948 6.111859356635062 0.4793610132048012 9 365 60
1.776866868074422 6.418560156433362 0.0528860546125729 9 365 271
1.9253307006973703 6.39556153482918 0.04564475857801109 9 365 311
1.0820133710145725 6.136477079876033 0.4723280788433326 9 366 23
1.3389202696620668 6.070044432381989 0.48648036299629327 9 366 114
1.8976549332571708 6.386797859083318 0.05483420076659962 9 366 304
1.2614844024140557 6.079502349467549 0.4889975615079347 9 367 85
1.746351256772597 6.416931582383059 0.0502883179665603 9 367 263
1.8503357672245873 6.405530837839336 0.0404641175429683 9 367 291
1.8644076006503416 6.394300138926514 0.0488798378661468 9 367 295
1.9306350576750573 6.380967264668151 0.0487305219731855 9 367 313
1.180272849859128 6.10413594986974 0.47699335600485604 9 368 57
1.2929989444647774 6.066523173304174 0.49180442656302037 9 368 96
1.8195618458474045 6.398077397343192 0.04904264034889172 9 368 283
1.2267896487452825 6.080498361222986 0.48748366563740686 9 369 72
1.3298607841241794 6.067071372734907 0.47985080918976397 9 369 111
1.6237401572886678 6.4325648083457425 0.049218510711356966 9 369 230
1.7084622975735495 6.42677118848265 0.0376352892901477 9 369 253
1.760375736442778 6.416010261184479 0.037839511558758865 9 369 267
1.8339641293575628 6.394848733969263 0.044111194748191584 9 369 287
2.870682889847536 6.1943808521070824 0.033578192111197724 9 369 571
1.2892464005520439 6.058373372528864 0.4932369315271936 9 370 94
1.678427470541238 6.427162698827455 0.03816384349236879 9 370 245
1.9481679205031162 6.37443343533944 0.03601524424606395 9 370 318
1.3660036104291142 6.043810614900986 0.48838232075030863 9 371 123
1.6197225728238636 6.421159888225216 0.05116959263773557 9 371 229
1.788337046105382 6.386579360211221 0.05148648835716396 9 371 275
2.279972200791219 6.2918809676959055 0.046162637520600125 9 371 410
2.80314413027335 6.195854338288894 0.035659112840763285 9 371 554
1.2373410916343077 6.066100151666748 0.4885153289383706 9 372 75
1.3128705880648415 6.0503875195549135 0.4888914545322596 9 372 103
1.6444443897504188 6.424730559814638 0.03714742490443079 9 372 236
1.6777956648427597 6.415143716598164 0.04002237222769889 9 372 245
1.7109511645170572 6.409915917355792 0.038479900632228725 9 372 254
1.835675936480324 6.378891501306567 0.044293931758801586 9 372 288
1.9266664346501152 6.357522470075069 0.047242496098338416 9 372 313
2.7594831383109946 6.191532738561919 0.043961067636901996 9 372 544
1.2607738706454343 6.054623336892393 0.49159662114375546 9 373 83
1.3375302503933435 6.041572262108362 0.4889933478960735 9 373 112
1.7252630729750822 6.398778336888714 0.04166074616067239 9 373 258
1.9334958583420128 6.355023041422436 0.03793679367822045 9 374 315
2.569067984193416 6.218715666336004 0.04543329537047147 9 374 492
2.754888221229473 6.177472125759262 0.04905787499329106 9 374 545
2.850874642146667 6.163844913523093 0.04302625453510078 9 374 571
2.8875359064868027 6.172360329917602 0.026597413470001552 9 374 578
1.706205075409435 6.38510979990602 0.04925928519248668 9 375 253
1.8002542648277486 6.35603504349452 0.0595775184475007 9 375 279
1.8666404240735845 6.35919716043927 0.042396156086839776 9 375 297
2.2496627624276746 6.269665295853948 0.05459012003041597 9 375 404
2.3741275267008097 6.252359326561039 0.04637678176479154 9 375 438
1.29976759871936 6.035937169398604 0.4913404919713702 9 376 97
1.7166813154408929 6.383313865796031 0.043697818200420624 9 376 256
1.742168681969128 6.375874178210913 0.04604980554056026 9 376 263
1.8469433788289336 6.347758696177593 0.053160854435463145 9 376 292
2.670139877887779 6.186451248890965 0.04727498264490193 9 376 522
2.7151932159875742 6.186969518352933 0.03726666957216329 9 376 533
2.808681443160012 6.190266230108585 0.014196873194611603 9 376 555
1.1823780088733598 6.068384369204532 0.4785646917911932 9 377 55
1.1967424842119754 6.063659854134771 0.4804484896131016 9 377 60
1.5730813094370975 6.417028455507064 0.03368416943226671 9 377 217
1.6508796484042245 6.388039111765632 0.04742335243005891 9 377 238
1.6944955766433205 6.3794982786173104 0.04710791915548018 9 377 250
1.8785551368261966 6.335023598758635 0.05454434621866122 9 377 301
2.1827484546007616 6.273290638157187 0.054596611559573294 9 377 386
2.198444769755471 6.274769375404691 0.04974972002424427 9 377 390
2.7435817986075643 6.190566846410162 0.022365123348858873 9 377 539
2.756846210358832 6.165281788759739 0.045858867838471706 9 377 547
1.0906038393446034 6.094056498523044 0.46735163412993663 9 378 23
1.2180257742915623 6.051895647079065 0.4843898264982096 9 378 67
1.2572335074067809 6.039857681437878 0.4886571658136918 9 378 81
1.6065675579563092 6.3975004706253795 0.0416985864942645 9 378 226
1.7340517391318129 6.377487918669684 0.03561864253149394 9 378 261
1.7842761125345645 6.346317576188914 0.05751526127252937 9 378 275
2.6294369481516964 6.188969591551179 0.04294790511153157 9 378 511
1.4534500448592151 6.0645491226032835 0.4174059121125808 9 379 161
2.235707029031077 6.259716152108773 0.047242631230679955 9 379 401
2.405223331632482 6.239297300234704 0.03266429548517946 9 379 447
2.698108809313413 6.181754057157345 0.030778746908116217 9 379 529
1.8194262669711483 6.3366413745724355 0.04983075440164719 9 380 285
1.8511462100173368 6.323108713581791 0.057294758421448266 9 380 294
2.2064786313576423 6.251517228710174 0.05689653493023927 9 380 394
2.3425279986787757 6.246356535000947 0.03337931854663978 9 380 430
2.4709308886137475 6.220468407109138 0.03325414570565144 9 380 466
1.2892996999815756 6.019647252990977 0.4916895578947773 9 381 92
1.6388349542821712 6.3719819976395895 0.04592555139695431 9 381 235
1.7722101863418471 6.342357890164998 0.04868565316887907 9 381 272
1.9259704789613594 6.308364828903701 0.051700311974709035 9 381 315
2.549356464693488 6.197235627354067 0.03580538956348733 9 381 489
2.579145223670282 6.187619756070481 0.03958194152813954 9 381 498
1.191111656421151 6.043600152177863 0.4835991784227516 9 382 56
1.2410120797635278 6.0289600281958124 0.48839874924321425 9 382 74
1.3271394986761216 6.007109480764922 0.49306971726256643 9 382 106
1.8609050335232271 6.315872580981275 0.05250761970688389 9 382 297
2.297363510112694 6.238278887821311 0.041152588167519655 9 382 419
2.420969027283498 6.220368619619849 0.03364070131315122 9 382 453
2.4722796221476577 6.206186472258661 0.03765449346620975 9 382 468
1.598819573622974 6.368672861473665 0.047569160940557076 9 383 224
1.6921537806252767 6.356897633181486 0.040031153351338 9 383 250
1.782278761884893 6.340018480988006 0.03859447462955101 9 383 275
1.8915430652666492 6.298406309154398 0.05928086877473504 9 383 306
2.42727147273291 6.208681582635533 0.03948912261093929 9 383 456
2.441313192643561 6.198352758396515 0.047430151527158015 9 383 461
2.4814310663316914 6.193285175741549 0.04419669659910097 9 383 472
2.5568213005589637 6.200348653468724 0.020530116951588795 9 383 490
2.603995641222377 5.815600918943118 0.4184369636613694 9 383 585
1.4507495979605758 6.073438740386573 0.3883505188280474 9 384 162
1.7384678217944978 6.330234191296298 0.05320702674335642 9 384 263
1.8028161628144421 6.321525480269925 0.04862624206739352 9 384 281
1.8530890564436062 6.315342200341724 0.04438723547762269 9 384 295
1.921396542427431 6.305214066006707 0.040464765893939214 9 384 314
2.15976826056971 6.244014201203814 0.05428722181288759 9 384 382
2.2258393273932056 6.228615378552895 0.05645401487436086 9 384 401
2.2556452032569734 6.237447910107209 0.04064238784829377 9 384 408
1.2866062228339517 6.004992921036693 0.4927428025090175 9 385 90
1.3275775574211275 5.991978053910732 0.49779400614739955 9 385 105
1.4467544462540096 6.008830207297866 0.4540842482845051 9 385 155
1.5617926329942549 6.373358922385661 0.04012229706565851 9 385 214
1.5879117868265884 6.358760553124294 0.050069202162376314 9 385 221
1.6299958740834346 6.3639547246354145 0.035442075093556014 9 385 233
2.2582420207039062 6.223628565081468 0.049656140727766473 9 385 410
2.3231024912708103 6.2148240904760215 0.04505713016595925 9 385 428
2.4793989863872126 6.180410957731938 0.04806222743797939 9 385 473
2.513911894743124 6.192627791959633 0.02757236183293399 9 385 480
1.6698273916230044 6.339205966752414 0.048084741569008216 9 386 244
1.7664835409160586 6.333177932145944 0.03362020421337464 9 386 271
1.8560687678221264 6.3135703335856865 0.035230008869711504 9 386 296
2.1764167325705834 6.236299319465595 0.048650859222077125 9 386 387
2.2785649509117274 6.2073672348307 0.057528122249680846 9 386 417
2.4970078498182167 6.175954189829463 0.04389124565836555 9 386 478
1.2078098676578204 6.022543172392209 0.4834473117668068 9 387 61
1.2315867760088657 6.017571260691577 0.4836284096507941 9 387 70
1.2684640760902004 6.003894276040012 0.490319620496686 9 387 83
1.3599792746050654 5.9846512285909625 0.49113119850339393 9 387 118
1.372412025964355 5.983832921297392 0.48931165059036963 9 387 123
1.629508521698014 6.354298938608307 0.03542436579069097 9 387 233
1.801003389508997 6.305172932247834 0.0509845379028957 9 387 281
1.848118853737224 6.308723446872497 0.03694177894516537 9 387 294
2.152864960354725 6.244164072996393 0.0401600297291127 9 387 380
2.3631081738910993 6.207856618482836 0.03353492851268003 9 387 439
2.44846372769988 6.19254306321026 0.03146124596248279 9 387 463
2.5277050172083917 5.809042963092745 0.4263433803201917 9 387 561
1.1062960976032028 6.056904137207894 0.46470588605252705 9 388 26
1.3112009531575852 5.990527431998852 0.49165455289455795 9 388 99
1.5573956520289023 6.363786805716217 0.03565868949406914 9 388 213
1.5869738281622776 6.349313693056358 0.04482218538753746 9 388 221
1.597858607126223 6.345245501629417 0.046838239161040685 9 388 224
1.8841167044166927 6.273439813396866 0.06192837111987459 9 388 305
2.229762462598331 6.215658578706619 0.04897004031388286 9 388 403
2.3833928865841028 6.200788080831527 0.031554670858200407 9 388 445
2.3168279882158282 6.196630317829058 0.0453991782983989 9 389 428
2.5494435168514666 5.796486807668714 0.4274053000863618 9 389 571
1.2092677968475365 6.012921079528987 0.48214225977861824 9 390 61
1.2797734927287687 5.986911445271463 0.49492728419209486 9 390 86
1.631868456344639 6.347053655627971 0.027016140354159113 9 390 234
1.6468389393903964 6.333117162186079 0.038861110303705315 9 390 238
2.593983953229949 5.796836576112961 0.4134006895150335 9 390 585
1.1932731103059928 6.009402644378134 0.48568874097570425 9 391 54
1.5666590692879678 6.3581187193793545 0.024034734725912665 9 391 216
1.7212646215978955 6.3121237658011164 0.0401556097052449 9 391 259
1.763513838150228 6.291201958839065 0.05365467997888751 9 391 271
1.3685752090349634 5.968772451794813 0.4876718063692036 9 392 121
1.6889686385902052 6.31309779453054 0.04100209138949307 9 392 250
1.8159416829211552 6.281201643859058 0.047874605413815496 9 392 286
1.8826802599391412 6.267825609523381 0.04778517488187983 9 392 305
2.177901494242471 6.214159077999423 0.041378769250011826 9 392 389
2.5047307935418712 5.794387748052886 0.42789963086829474 9 392 556
1.5432938379366994 6.33722178506631 0.041545118764759525 9 393 209
1.5815709566317988 6.337357145398961 0.032941299015225134 9 393 220
1.6784308656948823 6.297571153597174 0.055144646303120215 9 393 247
1.794102005371403 6.276818709124181 0.05233445747292431 9 393 280
1.8435747100184534 6.2728446777139135 0.045760830542129316 9 393 294
1.893220364472315 6.2674391936750435 0.040717670259139416 9 393 308
2.212875977340856 6.206588703532743 0.03678878877519498 9 393 399
1.3403233412513633 5.962539323108914 0.4932491025019161 9 394 109
1.4520809524679203 6.026404038042038 0.3982736906144988 9 394 161
1.564130769337093 6.331472070862818 0.03804280336201726 9 394 215
1.7516243455625002 6.282449559382441 0.05040215921300928 9 394 268
1.6351406160008248 6.307642700029126 0.04333522718768834 9 395 235
1.7161618599072739 6.286123553610931 0.049069655783817945 9 395 258
1.2347373173947838 5.9855689131277146 0.48379663473606227 9 396 69
1.2596172470082438 5.971342365734956 0.4939963277042845 9 396 77
1.364418064558486 5.957421586921457 0.4860481584843175 9 396 119
1.7332781935450434 6.28385304120162 0.04260411731320479 9 396 263
1.796292271937622 6.269061082031152 0.044931756154286795 9 396 281
1.810258170708344 6.265858007802038 0.04536431550331055 9 396 285
1.5884718844328571 6.312714297482712 0.03774132602466662 9 397 222
1.6129087057590619 6.31111559460615 0.03405498692792985 9 397 229
1.7643613505599698 6.272801693752035 0.04274612043761339 9 397 272
1.8799196485207739 6.252069494099367 0.03993867305640797 9 397 305
2.58507343980875 5.7662265119027225 0.42176500102969183 9 397 589
1.676595916049946 6.280996154147951 0.04811402721313529 9 398 247
2.5978604107158247 5.762445234813713 0.41923909080599087 9 398 594
1.2848337800832539 5.954860607280871 0.4954872471966807 9 399 86
1.5849412098438616 6.3010151168464645 0.04118229638547244 9 399 221
1.8871985070622959 6.225954142268096 0.057121199306809256 9 399 308
1.2101475772834225 5.969604884349991 0.4920632186685805 9 400 57
1.714074105256628 6.277939845911445 0.03275112148994053 9 400 258
1.7455978771608753 6.269510197684607 0.03509545507551293 9 400 267
1.821608141968804 6.241310517725047 0.04957648842527318 9 400 289
1.918889535640379 6.225937776355973 0.04488052032795342 9 400 317
1.54638455728738 6.297723846937292 0.043206913072248554 9 401 210
1.6647117129703894 6.281342345329862 0.034879516920368836 9 401 244
1.7625937446417124 6.261011475777665 0.03561729890639653 9 401 272
1.8524996839192898 6.235186628232864 0.044338427105946376 9 401 298
1.3416748379106096 5.934152310128273 0.49474441543462144 9 402 108
1.3644795173224131 5.936284640285957 0.48716679433407917 9 402 118
1.6923992299517783 6.269548152831655 0.036711166997258404 9 402 252
1.7097993966203515 6.269192474565533 0.03316686148896042 9 402 257
1.3124939857392262 5.935205151991656 0.49646532329141246 9 403 96
1.3501040842427234 5.934672602272544 0.4885149028218585 9 403 112
1.4397513230234753 5.998002858644293 0.39642432415310536 9 403 156
1.7614508733690442 6.2448219182217155 0.04381303780434598 9 403 272
1.6189924079309632 6.270484233040345 0.04199742955251384 9 404 231
1.224690294435232 5.952945570400756 0.4888859181575347 9 405 62
1.2495359954888314 5.943667752452907 0.49377546865284394 9 405 71
1.325752366461862 5.926550783356455 0.4958475239817157 9 405 101
1.7191427063762894 6.240219555267867 0.04840431456889327 9 405 260
1.8114725904117384 6.214702673376788 0.05636293767702805 9 405 287
1.896494673051017 6.1960058802818 0.05822106140087158 9 405 312
1.9280876144319767 6.19653538924653 0.050390797616997496 9 405 321
2.581182419802386 5.740566335327108 0.4206169927916257 9 405 593
1.1285022885638845 5.978406497246246 0.47809627789909825 9 406 26
1.3414352813305497 5.919575129110607 0.49650875515426707 9 406 107
1.373491108197183 5.921388041862812 0.4870819703447158 9 406 121
1.56040296461184 6.2674333516848355 0.04856537857093368 9 406 214
1.8489721321774013 6.209472612972624 0.0486304328008611 9 406 298
2.5891995724573 5.732160036791013 0.4245268434165024 9 406 598
1.6600409401477978 6.2427966091785345 0.04874734510941203 9 407 243
1.6908930246319593 6.237948089803971 0.047210228206056026 9 407 252
1.7558547150967125 6.2153066804421435 0.058234077598650735 9 407 271
1.7859994513519577 6.205908573415319 0.056990013028713093 9 408 280
1.8773954668117747 6.186082800495048 0.058714974159050914 9 408 307
1.8950277598082195 6.188405031700563 0.051973953868880596 9 408 312
1.931852893947494 6.177684032907717 0.055813811510301514 9 408 323
1.5266594167415846 6.254615005194038 0.055672866735193116 9 409 204
1.5663013812429283 6.25845859453645 0.04206134344093959 9 409 216
1.6011681337402621 6.2467254092272535 0.04753839195889409 9 409 226
1.6115519300600816 6.24349293704539 0.048867246531011155 9 409 229
1.6286503989983037 6.240425317687563 0.0484518453638918 9 409 234
1.7997455388186556 6.2117835150500555 0.0419235568106715 9 409 284
2.599388549459449 5.723900752316212 0.42013093407489 9 409 603
1.651961502073317 6.238404197356295 0.04024166905582849 9 410 241
1.8498403203181004 6.191278979830357 0.04889785468626506 9 410 299
1.4306301901390064 5.925894795209464 0.44974143061927485 9 411 147
1.7473999295858982 6.207044159725319 0.04930389490136844 9 411 269
1.9070700561734142 6.1777150794267754 0.04621822117534591 9 411 316
1.307285337498978 5.911801906531236 0.49111723126151086 9 412 93
1.3514065483592104 5.90456793298407 0.4892505162725267 9 412 111
1.5971746502741837 6.234793328722401 0.04689952407605391 9 412 225
1.6583473372663353 6.226545718019117 0.04223384731623536 9 412 243
1.8283708905220895 6.18786008096097 0.047641616190151836 9 412 293
1.3649581435975777 5.896650837266352 0.4916125189055105 9 413 116
1.2126524040552256 5.926660110148475 0.4884483737451837 9 414 55
1.224988949043566 5.9244468228447005 0.48814866181162464 9 414 60
1.7359485783190856 6.197190183225039 0.048138072267021714 9 414 266
1.888792773108817 6.174527676564739 0.038840512594136456 9 414 311
1.2952299843864943 5.901618375137813 0.49474524844751677 9 415 87
1.325062934126536 5.901018479732822 0.48842598567846784 9 415 100
1.5424864093068433 6.231335732531149 0.0483781710947504 9 415 209
1.6210852032656082 6.208408691710423 0.056858176047822395 9 415 232
1.7558351794012086 6.1910223889360365 0.04559246552826868 9 415 272
1.8396353367105533 6.167162095742172 0.05394620049748511 9 415 297
1.5560637963227744 6.223587109042192 0.04918704289052722 9 416 213
1.6510474565034 6.199766835350628 0.05488591703307977 9 416 241
1.7848408179164676 6.167761973444401 0.05601143756340066 9 417 281
1.3329702289327199 5.88595100683844 0.49324982169843423 9 418 102
1.7304835965263252 6.166289375685568 0.0605272959007519 9 419 265
1.8135775498898647 6.150031542576516 0.06011850847270073 9 419 290
1.8506517768361486 6.148780290070195 0.05277790606767341 9 419 301
1.2788650283542793 5.892895230656195 0.49044900297157423 9 420 80
1.4271667708641307 5.907405764336284 0.43765375057599876 9 420 146
1.6798962468376821 6.18156474224088 0.049265252595316555 9 420 250
1.7100842788715103 6.171430389634826 0.05417684127913103 9 420 259
1.8958441995715765 6.130014778898917 0.059341020551464396 9 420 315
1.2589873304000596 5.890368547915465 0.4945293998999709 9 421 71
1.3028669576259908 5.881823034183432 0.49427127537243076 9 421 89
1.3458802155381493 5.875452294874753 0.4916104531669552 9 421 107
1.350780632613011 5.880630814847544 0.4842205470900838 9 421 110
1.5861169480082982 6.193123470984449 0.052751723998279765 9 421 222
1.802857345781794 6.148853705514027 0.05394903074371915 9 421 287
1.877696256624656 6.124268168427155 0.05542444278783254 9 423 310
1.324634388960199 5.871786430983265 0.4900408830077001 9 424 98
1.5654710981242836 6.186448768157449 0.0504667407019066 9 424 216
1.758508130825039 6.1538267085026 0.04334031176650721 9 424 274
1.7718145783542312 6.150769210991653 0.04382928983887524 9 424 278
1.7881478170440075 6.141137190855227 0.05155462677262346 9 424 283
1.8441136301114904 6.127075453774029 0.05506818759708554 9 424 300
1.4295441542829828 5.903791543570908 0.4219847503853742 9 425 148
1.5393252121658916 6.183227755996957 0.05561095818001949 9 425 208
1.6287484965389325 6.167184413217298 0.05343845157545646 9 425 235
1.6980711169173217 6.165454434850098 0.03873577041174325 9 425 256
1.8171057060515963 6.1273686008679835 0.05618538524556094 9 425 292
1.2385279616474583 5.886498018060474 0.48560399497796314 9 426 63
1.279458914050309 5.874477059821662 0.4903153195475134 9 426 79
1.303833620801346 5.869435758476865 0.4905382903474127 9 426 89
1.7277151733399463 6.147548569255016 0.048233210571129836 9 426 265
1.6572369651613832 6.1590974458157 0.041071735494954575 9 428 244
1.798803042579995 6.113710635437688 0.06217239830120125 9 428 287
1.552177484752886 6.164751505522325 0.05474799239124284 9 429 212
1.617803947602169 6.154973488610105 0.05069526754000231 9 429 232
1.7561103737792763 6.126833493410951 0.051432385795341595 9 429 274
1.8696970875141496 6.093813975747597 0.06424234430086684 9 429 309
1.9120947321129287 6.086872803379149 0.06239282501571308 9 429 322
1.343646692279947 5.850850520194755 0.4888209958335734 9 430 105
1.354273761346993 5.852265650976635 0.4844583618165861 9 430 110
1.5816959429773523 6.1549304915890675 0.05453239007663635 9 430 221
1.2593670180489318 5.865277358694936 0.488024671553555 9 431 70
1.3039382409782436 5.853964010793065 0.49105351281326826 9 431 88
1.689567007051217 6.136367165697127 0.04584599679006618 9 431 254
1.8299343367024794 6.097916526301873 0.0588825553927077 9 431 297
1.370244138392919 5.847338949250824 0.47918909969586165 9 432 117
1.5155889317517057 6.161075883147985 0.053057107119834024 9 432 201
1.6310598724340521 6.130423231379958 0.06260861945168639 9 432 236
1.7935240081954378 6.098626121241679 0.06195670274453402 9 432 286
1.874656243388833 6.084070267374161 0.05998562420457221 9 432 311
1.3256883709981504 5.845371095245326 0.4889693886826376 9 433 97
1.337859608588249 5.842526001725605 0.48949896078392197 9 433 102
1.5354653515242007 6.151680333214999 0.054753666240368926 9 433 207
1.587600937091168 6.143649588360416 0.0518366133708823 9 433 223
1.7543444558416823 6.1104271374358925 0.051911782422853214 9 433 274
1.9008765146568614 6.082153653352981 0.05082754411429358 9 433 319
1.2387355495843722 5.861602310633408 0.48659046179609944 9 434 61
1.4261868626040848 5.8609949349353005 0.4407026699763108 9 434 144
1.525170510224323 6.152332643563272 0.051413874901763634 9 434 204
1.1558488497589634 5.873800669922681 0.4882447755513222 9 435 26
1.266726172897209 5.855886767526483 0.4830666693001251 9 435 73
1.3001902665710907 5.844607065321492 0.48887865550902676 9 435 86
1.5873348764182151 6.135366836547621 0.0521075469221266 9 435 223
1.7824552370626603 6.091127567369255 0.05896091508195367 9 435 283
1.834673285469886 6.087035121423568 0.05106731197797365 9 435 299
1.8578983972396341 6.087484747217203 0.04470624193000905 9 435 306
1.8962193948381159 6.074674229038385 0.05122829274562557 9 435 318
1.9242712130733182 6.062387049598099 0.05965614971768285 9 435 327
1.8113671988945548 6.086737981335126 0.05220437226991592 9 436 292
1.3554800028343554 5.8346249899650005 0.4802001276603436 9 437 110
1.6355419274446799 6.121702499243044 0.0470862683790223 9 437 238
1.7008659165611637 6.099461966308871 0.058795485964911354 9 437 258
1.5801188887114503 6.127171234233753 0.04900948144535544 9 438 221
1.59622597307631 6.125594619742788 0.04695326837816016 9 438 226
1.8168423083704763 6.078791744159952 0.05075045807706502 9 438 294
1.862252746171443 6.0719578440854285 0.04798233055356116 9 438 308
1.2272010017967006 5.853627589185444 0.4809616671229473 9 439 56
1.295393643331684 5.832870297226202 0.49014573011032114 9 439 83
1.3301817911210723 5.833185068686681 0.4809615192657961 9 439 99
1.5312084819652145 6.132790588694374 0.04911815198097802 9 439 206
1.5712194217080646 6.117089347909445 0.05898687930047197 9 439 218
1.609649775681598 6.112817074526481 0.054717549884704564 9 439 230
1.8360333105523186 6.075479868291305 0.04504812050327711 9 439 300
1.8519589809111525 6.070000181246762 0.04799688981338757 9 439 305
1.8794028271300771 6.051964350888424 0.06400824197285249 9 439 314
1.6641098308307345 6.102521973718922 0.04899230761673601 9 440 247
1.6709281962263678 6.093442989754077 0.058850943728316896 9 440 249
1.909550533654825 6.056523773650079 0.04553548528032181 9 440 323
2.0335772298723422 5.726592511680069 0.43513744184553693 9 440 393
1.234948976768656 5.8430040648988975 0.48512453951263623 9 441 58
1.6281600987066067 6.107136003117008 0.04713132786095686 9 441 236
1.7283614242025096 6.072817323405175 0.06561688519933662 9 441 267
2.0909639083090568 5.713612992878086 0.43336641350122496 9 441 417
2.1116616583751497 5.707284917826305 0.4362108149565991 9 441 426
1.5403791358601846 6.121701671167734 0.045691386720743576 9 442 209
1.6411161140526562 6.097101593521556 0.051626442896532954 9 442 240
2.1187946292033173 5.6994130057600465 0.4407016453334265 9 442 430
1.2864702330990454 5.825869639397561 0.4866022388056601 9 443 79
1.3525550010022642 5.818575495371753 0.47911893375061165 9 443 108
1.426135274884471 5.871850531806312 0.3916830224649377 9 443 148
1.6118947345202908 6.099213798375916 0.05129437116089619 9 443 231
1.682729395312979 6.083246797696413 0.05377191089068445 9 443 253
1.820434465951891 6.056586077324708 0.05294550107128404 9 443 296
1.2580620013233632 5.829635442409084 0.48530995535420907 9 444 67
1.3079010458270672 5.819392298508721 0.4857814828030842 9 444 88
1.501506142497659 6.121098063916776 0.0462109158197892 9 444 197
1.5558774281824768 6.114597136175634 0.04068431261107763 9 444 214
1.711218883004595 6.0750138897254615 0.05205078816652553 9 444 262
1.8986811215924828 6.030969378078961 0.060954651927470405 9 444 321
2.0318030911313394 5.712294222911707 0.4387547357735664 9 444 394
2.065653570115349 5.706871849638892 0.4370912762296819 9 444 408
1.5439190493312367 6.105809886605741 0.05003665816728797 9 445 210
1.5822786636903583 6.100227377536481 0.04741958428116666 9 445 222
1.6438059262159561 6.082041261459333 0.05519312625149109 9 445 241
1.6632060951162044 6.074012150630242 0.0606199496467732 9 445 247
1.7395892815533067 6.061607947657908 0.057079006278150324 9 445 271
1.8726659978895421 6.03188468886536 0.061429239566467064 9 445 313
1.7805638921688272 6.051150550633706 0.05507779829017667 9 446 284
1.9208866486316867 6.02792183747542 0.04913660782591345 9 446 328
1.2799589735191317 5.818475049723685 0.4830579846787568 9 447 76
1.3275545178423034 5.813175189879765 0.47767430585786963 9 447 97
1.8556433925483953 6.027452174825866 0.06155384394199581 9 447 308
1.3398445315266643 5.807698732093134 0.477934048583605 9 448 102
1.4247506712938043 5.848743659310474 0.4021893012498583 9 448 146
1.5759184880478883 6.0861933006093665 0.0521268379193045 9 448 220
1.703428915634444 6.062023054312696 0.05072283448174364 9 448 260
1.7447568389275576 6.050727194703434 0.05480033830812747 9 448 273
1.7700495110404981 6.0436020076406685 0.057573495203175895 9 448 281
2.025680940601451 5.700178379255171 0.4409458974872218 9 448 393
2.0840851174781774 5.6929344996484215 0.43529239687805754 9 448 417
2.0991959792151453 5.686342294169945 0.440006733846394 9 448 424
1.680789737596031 6.06363127078384 0.049428818199762414 9 449 253
1.718992919379795 6.053547773680496 0.05274250763656818 9 449 265
1.2311690027453046 5.821315497663253 0.48086710702496305 9 450 55
1.8988505506689561 6.014963501689465 0.05163782766847991 9 450 322
2.1189046678713828 5.677526003933686 0.43890447867693516 9 450 433
1.5337656806654207 6.085751690177407 0.04846993881712791 9 451 207
1.6418059641210871 6.067656192584403 0.04414264643317556 9 451 241
1.7529880340882766 6.036761840986147 0.05591285612964647 9 451 276
1.8666322420921477 6.017016959197691 0.05230071538229586 9 451 312
2.0233319408301735 5.6920382880951585 0.44092328930202807 9 451 393
2.0377657166877707 5.690092728329647 0.43972132892453697 9 451 399
2.0529255790772414 5.689948717514375 0.4359480405731928 9 451 405
1.2515912782563658 5.815005310029861 0.47642918854729066 9 452 64
1.2702576204066638 5.807155421375023 0.4819446943679677 9 452 71
1.2861633455932913 5.804944809850858 0.48070552745297546 9 452 78
1.5435202620578068 6.078338087220582 0.05065966973183511 9 452 210
1.5879755300703917 6.069719469457443 0.050432286327275255 9 452 224
1.6100914400288224 6.066394618190981 0.04904234685189879 9 452 231
1.6895207982340275 6.04635741265741 0.05478691976047978 9 452 256
1.796894581744336 6.029022568556169 0.04962018478308439 9 452 290
1.818761508367201 6.0218845039344835 0.05335244749390977 9 452 297
1.2282488891766108 5.813375837765319 0.4810045201597395 9 453 53
1.305534969891354 5.802720105944059 0.47485614077737526 9 453 87
1.7112055664004329 6.042602015399645 0.04902978057450369 9 453 263
1.8804010802558804 6.001332458031966 0.0594398398086593 9 453 317
1.3372329508442748 5.791865786039272 0.47725156337930486 9 454 100
2.0284983542828052 5.683872713303642 0.43906765983973184 9 454 396
1.2675170895794836 5.798577565289494 0.48298523173226515 9 455 69
1.503122587879323 6.069945347667541 0.05731110902018788 9 455 197
1.7670869117242747 6.021947663573748 0.05175527169476535 9 455 281
1.813385525201043 6.0027599989848115 0.0652001287163988 9 455 296
1.8950352246718865 5.993231854093278 0.05636023763996256 9 455 322
2.0727993897777393 5.673944975639227 0.43685299820971113 9 455 415
1.2985630223968108 5.793616337427821 0.47770641135129344 9 456 83
1.3257585058835937 5.7849026370423875 0.4821965633580745 9 456 94
1.3626182845837316 5.789154434344213 0.4667068212814043 9 456 112
1.5367038780282287 6.065970920355021 0.04868667889844902 9 456 208
1.5750321918259722 6.055259889922512 0.05290636278780836 9 456 220
2.0515349344615497 5.6770604906535675 0.4345170642518119 9 456 406
1.2501316522480255 5.800355797969092 0.47778937359095774 9 457 62
1.631434559716295 6.040803986435444 0.05231815003103524 9 457 238
1.7004374093634367 6.0277860886871135 0.051501723873415894 9 457 260
1.709769318560671 6.031216951212372 0.04439552951952708 9 457 263
1.844155334605392 5.997534872039689 0.05402965410799343 9 457 306
2.0929284679966176 5.666380072853568 0.4340957755662347 9 457 424
1.6682869907421651 6.040695128213857 0.03757295090320545 9 458 250
2.1080177134355136 5.6597875876317945 0.43518353280198396 9 458 431
1.4999754238117982 6.055738692558611 0.05711062909786113 9 459 196
1.737285797630455 6.015707891207523 0.047893899874411616 9 459 272
1.765145210367803 6.001802914085132 0.05929666712784387 9 459 281
1.3401936380797097 5.778360672363734 0.47233792507857864 9 460 101
1.578066092972692 6.036779833751131 0.05689441945425955 9 460 221
1.373163252869642 5.7743092922533314 0.46526061138330976 9 461 116
1.516002640300955 6.042975594396497 0.06009766378475945 9 461 201
1.5450511290150948 6.030787236934927 0.06891486131063762 9 461 210
1.6000482715618358 6.025994281363544 0.060652974751637334 9 461 228
1.658873391988089 6.016709088353638 0.057492324479865076 9 461 247
2.0363017576995053 5.667387094796311 0.4327012285221392 9 461 401
2.057399559314867 5.663601959128508 0.43218866500277753 9 461 410
1.6276890147335124 6.018008778274594 0.059094178293438215 9 462 237
1.5347433951247123 6.031029097706751 0.06133941778284169 9 463 207
1.800562805097596 5.982706436140119 0.055749976713419525 9 463 293
1.2605441449998063 5.775424650197234 0.4830130836480775 9 464 64
1.8283989974847241 5.980377598485655 0.04637044507343813 9 464 302
1.8985879373428358 5.960209013999621 0.05510585989812222 9 464 325
2.0283345234670147 5.657879057088145 0.43651807381380436 9 464 399
1.3509023882779037 5.768640745120505 0.464082002291375 9 465 106
1.5713644766755068 6.019057615908036 0.05783554635342192 9 465 219
1.7071709507651542 5.994062387597618 0.05540761467528976 9 465 263
1.7349122243581 5.986563833948157 0.0582197135657867 9 465 272
1.7658438098289637 5.985427068791169 0.05136765720849823 9 465 282
2.051470036536018 5.646734764184119 0.4418330237437498 9 465 410
1.2342890184878885 5.778815616828984 0.4780644197459287 9 466 53
1.7899820232996366 5.975565905098835 0.053406044272698905 9 466 290
2.0719862875163453 5.641742489228075 0.43938105746865874 9 466 419
2.092504851221736 5.63743192127668 0.43975545008696937 9 466 428
1.324259375350807 5.767667305714041 0.46521153466882215 9 467 94
1.7434642385194106 5.9846769835777165 0.048434423587776276 9 467 275
1.284708460492913 5.7740897109572495 0.46335900886602577 9 468 77
1.3023443364114087 5.767788394370135 0.4673097424599595 9 468 84
1.3555124180467648 5.762014329374445 0.4607629721876281 9 468 108
1.5923169146428937 6.006277289715337 0.05475144957808231 9 468 226
1.6536767534985242 5.997778577210194 0.04975742337850564 9 468 246
1.6814471620440035 5.992168904313483 0.04995852679749291 9 468 255
1.7554109323273426 5.979526549063373 0.04728582801086767 9 468 279
1.8166134406990864 5.962899190806125 0.053681436836481744 9 468 299
1.8442206291016874 5.957946212509356 0.05301073010099788 9 468 308
1.8697152548156715 5.960901707812054 0.04188131010967622 9 468 316
1.267247257654867 5.76965578503745 0.4706169927010755 9 469 68
1.7180998183859595 5.977578951641277 0.055235232704965886 9 469 267
1.3091984072323295 5.758335281542675 0.4711880717104826 9 470 86
1.3352517189000153 5.756163112221593 0.4670402371547404 9 470 98
1.3690024309881388 5.756363078728049 0.45743297421818196 9 470 114
1.6505388178408453 5.9848327822522105 0.05867914576992206 9 470 245
1.8963969133930967 5.950106422126506 0.03952505456445077 9 470 325
2.0635006837246666 5.63113836576102 0.4414390556846186 9 470 417
1.586167939433324 5.9933977054752425 0.05941936186206709 9 471 224
1.6195026582047158 5.989915377652392 0.05508873932610214 9 471 235
2.0517731617024904 5.631941592248545 0.4397863460664908 9 471 412
2.0746851106504307 5.627830982206663 0.43922970848868537 9 471 422
1.2882398791829892 5.759519076417332 0.4678595962659231 9 472 77
1.692460627673805 5.9782072668746515 0.04632126630858879 9 472 259
1.7262021872764717 5.969035860403494 0.04990963785302904 9 472 270
1.7447112489288676 5.975068768165704 0.03623563496132087 9 472 276
1.3178594678129691 5.738597003788673 0.48553175896518463 9 473 87
1.6469314882576267 5.972804596424108 0.06161163308326101 9 473 244
1.863490877865736 5.942668372018126 0.043987383677717595 9 473 315
2.0273703007096158 5.637453663197789 0.43120560818573717 9 473 401
1.613568370342156 5.973337423569344 0.06516256863095493 9 474 233
1.768018205261662 5.950600727418698 0.054334236861374396 9 474 284
1.7801108297075705 5.94718795276158 0.05580945800338233 9 474 288
1.804567308806896 5.9452868119931095 0.051677176950363 9 474 296
2.0922912818695605 5.615796816968351 0.4400652301015029 9 474 431
1.2329779350201084 5.765569036232198 0.46344568232485694 9 475 53
2.105686452055528 5.612100572123249 0.43781374162831144 9 475 437
1.2506605268046966 5.753672173343618 0.47174611418341517 9 476 59
1.2695452571483297 5.7447068249187865 0.479274034598252 9 476 66
1.3405491437759651 5.728249916238143 0.48287349942670477 9 476 97
1.6792108033065416 5.96246390623043 0.05224007800492103 9 476 255
1.788390740909198 5.940397236069828 0.05313727837850202 9 476 291
1.8577791246496194 5.92546960300434 0.05500109448693635 9 476 314
