3.8881829698080503 4.088562275734001 0.7833599956229973 9 229 18
3.8937492883920184 4.071120211287152 0.781046145665654 9 229 24
3.8829270495198402 4.088846557862569 0.7707485597420092 9 233 18
3.880508386686179 4.056475780535985 0.7725664990398345 9 233 27
3.870986269591406 4.013424392170122 0.7780495669066443 9 233 38
3.878418335453678 4.0465983428362495 0.7662018861891546 9 235 30
3.8908074490316578 4.096049488583491 0.7553175062083637 9 236 18
3.870240210446608 3.9845358666610586 0.7676665595888917 9 236 47
3.883610512529563 4.051988811887915 0.7521001724298868 9 238 30
3.8803723392102247 4.012179812342872 0.7545025174736182 9 238 41
3.864769200456151 3.9523519341404993 0.763447663628339 9 238 56
3.870219568785764 3.9730698983963215 0.7565276001346984 9 239 51
3.8707309143775355 3.9431614740818874 0.7530628514182737 9 240 60
3.8892810948682675 4.099434712433362 0.7367893354155995 9 241 18
3.88700351336413 4.052906880073686 0.7388656739132983 9 241 31
3.892675641293965 4.042998596727843 0.7323395693135067 9 242 35
3.8821967825516124 4.016322243409276 0.7381706007832245 9 242 41
3.8968768942075296 4.098672783122663 0.7252160210786948 9 243 20
3.8895331312257397 3.916665910991013 0.7325888549256937 9 243 71
3.8963495430384976 4.081708890430942 0.7219321391022041 9 244 25
3.8932848229911468 4.023997073085541 0.724651449488797 9 244 41
3.900116932068867 4.106699891995369 0.7116898762715244 9 246 19
3.876565677322894 3.9505192478925166 0.7269371430261006 9 246 60
3.887460510019478 3.9247291379886367 0.7218523579242486 9 246 69
3.880465881362034 3.910848034565381 0.7257280620314086 9 246 72
3.8987711962218468 4.104123936290772 0.7045916689281441 9 248 20
3.896144603458427 3.997161760576659 0.7081057305690812 9 248 50
3.8830991138242963 3.9658014340462477 0.7155024061832482 9 248 57
3.8887955053489014 4.050032860598576 0.7069451486770252 9 249 34
3.8923786389614565 3.9433294800898286 0.7072276104783636 9 249 65
3.899975694093186 4.03330684628841 0.6935729438205671 9 251 41
3.8858079879463565 3.93097352021356 0.7030788133528438 9 251 68
3.899581504503847 4.101030678417506 0.6884597777894971 9 252 22
3.8854327218154343 3.9980428982729 0.6980021210973253 9 252 49
3.882301540706327 3.9509108902079815 0.7006054052741726 9 252 62
3.8324204169362153 3.8880363872821473 0.7281843514736854 9 252 73
3.882445050653489 4.060240630373541 0.6943997362508616 9 253 31
3.891757281182642 3.925556386135519 0.6882426861853335 9 254 71
3.8845500561119493 3.9648109671938117 0.6873428574285854 9 255 59
3.8903334609306306 4.032020777079674 0.6789328840109132 9 256 41
3.8987572639404218 4.097817245702565 0.6690942783820376 9 257 24
3.882198522072411 3.9756292879277852 0.6804909769854566 9 257 56
3.8916323142582527 3.965198580860775 0.6636738265558807 9 260 61
3.88222479280779 3.9356956017002207 0.6694035646956723 9 260 68
3.891451246878046 4.107635674951781 0.6568749854351457 9 261 21
3.8816107008327942 4.027714474926546 0.6638903544101591 9 261 42
3.885529605131193 3.980449064471729 0.662707452488912 9 261 56
3.884997784966647 4.062225921599705 0.6573420322892353 9 262 33
3.885556927969917 4.0173833039184235 0.6539503116897881 9 263 46
3.892885021506072 4.100475696794365 0.6441858894714825 9 264 24
3.8895992480455766 3.9742720940978473 0.648584786847713 9 264 59
3.8894793584187806 4.006940067406586 0.6439625107276346 9 265 50
3.8922513208685965 4.108990262203618 0.6362965586915577 9 266 22
3.895135222454207 4.078588689261199 0.635307279562948 9 266 31
3.8966073382794635 4.026691779192078 0.631494351365514 9 267 46
3.900483056251929 3.982280231869244 0.6302296652883694 9 267 59
3.886106944494564 3.928599709929961 0.6393947975262615 9 267 72
3.84285706149469 3.703531010350816 0.6643387349499734 9 268 131
3.8695780283888546 4.0813022500036045 0.6335206657700321 9 270 27
3.885291638754296 4.076320697283501 0.6246997952844346 9 270 31
3.8946927379340854 3.9958813549876906 0.6210137232300443 9 270 55
3.888236043975599 3.9539820432157073 0.6214800238302216 9 271 66
3.8773480101054965 4.023698425923777 0.6222095179860843 9 272 45
3.8948307763210703 4.011877556134207 0.6124450364511647 9 272 51
3.8678323061080957 4.036911133708457 0.6233542550941316 9 273 40
3.8937217569002724 3.9547173566724823 0.6101682202678029 9 273 67
3.884844286635437 4.09382081944275 0.6083265790624284 9 274 27
3.8875565964644654 4.081106627464113 0.6070237023178757 9 274 31
3.887987526420463 4.0312442248474625 0.6078033259843296 9 274 45
3.877681836721673 3.9188408058266644 0.6160680045690259 9 274 75
3.8925161424269823 4.124403924337598 0.5991655163290115 9 275 20
3.879334590070061 4.045084064598922 0.6084392839616655 9 275 40
3.8995865520493096 4.12238296846863 0.5909839986218808 9 276 22
3.893128100447239 4.06812240231471 0.5958615795333293 9 276 36
3.891899376507358 4.009924415171033 0.5977787416237308 9 276 52
3.898275805579736 4.0005578016062175 0.5859977951922812 9 278 56
3.888461296333379 4.050036758064971 0.5866049390520149 9 279 41
3.887596484186926 3.964077794440878 0.5847691443498577 9 280 65
3.8827511808440054 3.9257251148231935 0.5884277165673639 9 280 75
3.8468679600249702 4.1020702330011565 0.6019314708240657 9 281 20
3.871276553094085 4.070539870687927 0.5881064975088417 9 281 33
3.8912599200544493 4.065005307690109 0.5722153315044323 9 282 38
3.892831701269087 3.982780654886371 0.5729880905887428 9 282 61
3.882087976452485 3.9304533489975206 0.5804739830727947 9 282 74
3.891731377844762 4.022747150210339 0.568653421530092 9 283 50
3.872535583949624 3.9815953465219303 0.5727364247490465 9 285 59
3.8865564506815176 3.9493505168314043 0.5649600512292083 9 285 70
3.8730593665722726 3.920989070140707 0.5736840342689029 9 285 76
3.811718715473164 4.081591335995733 0.6033026982712533 9 286 21
3.882520814910224 4.030971482710195 0.5615299121374289 9 286 47
3.8663168023405277 3.9599515170555724 0.5604050064917259 9 289 65
3.8843627647608 3.95127292268758 0.549542903034121 9 289 70
3.7909804880524884 4.082747300782021 0.5999638901300202 9 290 18
3.8031245314005018 4.062575744164104 0.5929258072041377 9 290 26
3.862002103876048 3.9259480264430877 0.5008470033191439 9 304 77
3.718457380811195 4.04429740996813 0.5717144115992054 9 309 21
3.702433676965481 4.044433945386172 0.5666173559938295 9 313 19
3.7058495727676295 4.036588158679356 0.5644970448041622 9 313 22
3.7294605125986946 4.035248488839837 0.5447053997115829 9 314 27
3.7204515297739515 4.028159164553531 0.5268765801113555 9 320 29
3.702987026749119 4.025136374804323 0.5189254872939342 9 325 28
3.714728178410004 3.5775519154948308 0.5082507637066691 9 328 163
3.6804334682082978 4.031301148475122 0.5186524182730936 9 329 23
3.6599901548619425 4.032454302362863 0.5291947100768146 9 330 19
3.6981700321188242 4.0316274750735115 0.4938934266913424 9 332 27
3.65371982751255 3.6569914604202713 0.5339758291158432 9 332 133
3.6594980308220917 3.63834426211747 0.5143489800050431 9 336 140
3.6556522441180554 3.647750477305604 0.5089726643906249 9 338 137
3.649370233444607 3.656178031643325 0.5054250569988055 9 340 134
3.666254323847903 3.6240495204168246 0.48558184564122087 9 342 146
3.6540812864359573 3.636519411117934 0.4903349651130362 9 343 141
3.625836959506098 3.658519447746321 0.45888300863143083 9 356 133
3.7094613770472207 3.70979041430905 0.31407499726365495 9 374 131
3.7638650757843815 3.711111673049165 0.26432319534049986 9 375 137
3.832664937309747 3.689388000098623 0.20755124294031102 9 375 150
3.819561108963263 3.6543141114713595 0.21925936863804174 9 375 158
3.801702940031045 3.6218357489407658 0.234865676290948 9 375 165
3.8206239312043286 3.700566564109634 0.21256388309680552 9 376 146
3.8080172835752064 3.6094996317695696 0.22517372916651812 9 376 169
3.8089200398114214 3.5840197729217675 0.22027320225166136 9 377 176
3.800896987309094 3.5105438656768095 0.2286771145489972 9 377 195
3.8035426666218166 3.477635411836042 0.2272130109354049 9 377 204
3.803832665960097 3.4440799266286093 0.2277376677717029 9 377 213
3.805776579559488 3.662256175321983 0.2163860715571777 9 378 155
3.809792891350358 3.652434129539984 0.2132342915643175 9 378 158
3.8032333944252437 3.410626958785879 0.2242869697438743 9 378 222
3.655213703943396 3.7106697698042135 0.337542991857811 9 379 125
3.7149677025175962 3.704401164042286 0.28728110247468996 9 379 134
3.7924524354853175 3.4643701041368944 0.227421608751871 9 379 207
3.801848501110186 3.376989557317297 0.22149880818986456 9 379 231
3.8044593793449426 3.3475660703537837 0.21997095373526387 9 379 239
3.8030196717960005 3.3323602692464966 0.22153402700542024 9 379 243
3.7766364372117693 3.294809662880693 0.24465053375363022 9 379 252
3.8131738100267167 3.6887035528701384 0.20002743498304465 9 380 149
3.8047258260691774 3.5765808201853644 0.20975067510718315 9 380 178
3.739281911078635 3.697503671616223 0.2577909029926406 9 381 139
3.807346292636958 3.6230382052893484 0.20170350867541198 9 381 166
3.7984102209228348 3.477770276211239 0.21262918328532976 9 381 204
3.7919682595267106 3.316048114365812 0.22181496101188358 9 381 247
3.8120989045428884 3.678659201695732 0.1868056287160289 9 383 152
3.8076785851441124 3.6322321893607867 0.18686020889524713 9 384 164
3.8042688185910962 3.4841250496957556 0.19319805732188433 9 384 203
3.6397673536670343 3.7110079287323217 0.32472312538707326 9 385 124
3.718799890061579 3.6916184325348356 0.25716522251096485 9 385 139
3.8125747925050772 3.592734001721447 0.17875604068555617 9 385 175
3.7976161054406754 3.516560970453815 0.19338503319375544 9 385 194
3.8017697294459176 3.563347446500458 0.18393793530492752 9 386 182
3.78176631066436 3.531158449438842 0.20195056937739153 9 386 189
3.788571105479283 3.4658540316207116 0.1975842206561178 9 386 207
3.7866864291819304 3.4131459278041394 0.2004286594419149 9 386 221
3.7895914418077723 3.695022406791277 0.186638598917235 9 387 146
3.8050330219786574 3.6215236292090025 0.17496314697476945 9 387 167
3.79872317092073 3.449933343809284 0.18439583338986365 9 387 212
3.789097173512291 3.391539597559337 0.19408358712985252 9 387 227
3.790294490585284 3.343162565248196 0.19416505593851263 9 387 240
3.7960001111220323 3.3141567720818825 0.1898937417652793 9 387 248
3.6289262119354775 3.7148860449720162 0.32101686599114654 9 388 122
3.803919757484116 3.644361926929178 0.17057843953681973 9 388 161
3.803317432025828 3.4438163283908385 0.17574365331637765 9 388 214
3.79380010513286 3.374022391103736 0.18562972151578294 9 388 232
3.808231723353831 3.6692146677185202 0.16141254210798195 9 389 155
3.8003551083362535 3.590714891872165 0.17009876258463463 9 389 175
3.7629256789991343 3.5121644309264637 0.20455221182208683 9 389 193
3.7969507845879877 3.608972289289865 0.16782436258336753 9 390 170
3.7708924873231453 3.4776833515939805 0.19366354124994922 9 390 203
3.784651649779871 3.4139019361391303 0.1831074519283422 9 390 221
3.6384026221653976 3.7072002793334486 0.29985549588325977 9 391 126
3.7844876104340086 3.687872883918234 0.17210074641997464 9 391 148
3.753296836198041 3.5249610880970814 0.20325644506961615 9 391 189
3.6493475902835995 3.6987272158989466 0.2860300901245665 9 392 130
3.7798797165754223 3.398508700870752 0.17807905609286045 9 392 225
3.771797850828935 3.691620693039675 0.17360328644877177 9 393 146
3.802397197434229 3.6464949679017815 0.1476234334587554 9 393 161
3.7535150689153847 3.5664167931937696 0.1926668353696961 9 393 178
3.789997192998347 3.3783512015557737 0.16481660823590305 9 393 231
3.7789783807529274 3.3089194259088766 0.17616573013578685 9 393 249
3.6128407400256775 3.714816204251102 0.3091484380650762 9 394 121
3.7074411933803857 3.6922967724223144 0.2258347719623539 9 394 139
3.792014286869692 3.6660317353872527 0.15149495755972264 9 394 155
3.7725706204694096 3.5878576041821924 0.17054766036391822 9 394 174
3.7489668499005444 3.54334632689125 0.19250302823641663 9 394 184
3.757091922526199 3.4090471467040375 0.1884307601572437 9 394 221
3.735973767220617 3.5142527081451567 0.20000613356548191 9 395 191
3.7713823472478225 3.3528376007562226 0.17228756788799848 9 395 237
3.786644309931733 3.627395281617416 0.14746648345052193 9 396 165
3.7584441365449655 3.584203217173436 0.17363002253380277 9 396 174
3.740171800784971 3.46454203043322 0.19272284157988873 9 396 205
3.741839515194372 3.4502949584632807 0.19156779405608693 9 396 209
3.759975542572737 3.3176342509493564 0.1784869479199913 9 396 246
3.7798843794361883 3.678287571291626 0.14746830622488716 9 397 151
3.732245347185743 3.477468571426152 0.1947948758074609 9 397 201
3.7504261051441166 3.426926918992529 0.17970556843656715 9 397 216
3.777018594440399 3.6363771883461675 0.14617186895200707 9 398 162
3.7755791836152177 3.624590011345683 0.14773998470614425 9 398 165
3.7204882781504227 3.489226726619257 0.2003694196042849 9 398 197
3.733262973253943 3.437884498862666 0.19010098252330643 9 398 212
3.747520163411883 3.3933867447760875 0.17834138138141054 9 398 225
3.739848972483597 3.300079029913194 0.18741178453964213 9 398 250
3.6770301721959164 3.697043576772114 0.22996540346381944 9 399 135
3.7594401891976794 3.6045902253085496 0.15789973915599065 9 399 169
3.5753589178261587 3.7083553492641492 0.3170080132190951 9 400 119
3.594599194710974 3.7069868049657893 0.2996531945860468 9 400 122
3.605383971971616 3.7050274359717337 0.2899532285991815 9 400 124
3.7608871716151837 3.6733586621658736 0.1453479907180384 9 401 151
3.6969045596831096 3.5197483915063277 0.20695990725731117 9 401 187
3.7333595205578045 3.391236819545933 0.17692612566832366 9 401 225
3.7106400554553884 3.6983438869110357 0.1856286886158478 9 402 139
3.718342160301774 3.6838354054728457 0.1742455903302904 9 403 144
3.694910349815805 3.5559032605895813 0.19863557637089535 9 403 177
3.6957153330124726 3.4627595937517484 0.20009192430513711 9 403 203
3.728285907673322 3.673666021390563 0.16065409283737653 9 404 148
3.680714773858994 3.5054677903563176 0.20816198524809382 9 404 190
3.6816324032058625 3.4879180490532677 0.207735214686797 9 404 195
3.7223766241783673 3.3824500441267595 0.17292076744079443 9 404 227
3.7210675784751785 3.3566409032038536 0.17472681261646938 9 404 234
3.731837284783441 3.351368398131036 0.16499220821432115 9 404 236
3.6070774035093205 3.6952135012625282 0.2666929392369499 9 405 128
3.6931260521961122 3.5670258553443674 0.19069045585770694 9 405 174
3.691063634814662 3.4514935219343674 0.1953078815701319 9 405 206
3.6858113446376253 3.4394231892990605 0.20041593372429478 9 405 209
3.697389427376745 3.4279090393614946 0.1900544297278597 9 405 213
3.721306850550949 3.316775388755511 0.17070916062262365 9 405 245
3.7306778441483006 3.6351719303827856 0.1498149508677007 9 406 159
3.6714847719526413 3.4964757361943324 0.20762383159579967 9 406 192
3.62310977697307 3.6964987616325455 0.24299721380398775 9 407 130
3.6707492620796427 3.486010596428109 0.20393718749426393 9 407 195
3.7052381959561305 3.383326479762539 0.17448531667840728 9 407 226
3.7113583005385222 3.293718775082262 0.1709454413803515 9 407 251
3.661181097467698 3.7028947853904035 0.20305950106245851 9 408 133
3.6643489422939624 3.5129019852973706 0.20461527810063274 9 408 187
3.7168745357379906 3.3495295160493597 0.15977430096466216 9 408 236
3.632201768657984 3.6981541698641918 0.22552191523961262 9 409 131
3.6665231670238905 3.6951063124192407 0.19366728943650058 9 409 136
3.7077908893343405 3.669127029980741 0.15113911190681417 9 410 148
3.6886220448453733 3.5967198980550377 0.170743780989562 9 410 166
3.65507298977465 3.514464481559245 0.20400162815831324 9 410 186
3.6647354070946427 3.4535570303102148 0.1964281035301889 9 410 204
3.6731832689309263 3.445077076627754 0.18874544854863995 9 410 207
3.677228120276346 3.417525540757568 0.1856237395092175 9 410 215
3.6789326063897207 3.396474036494213 0.18453202940054947 9 410 221
3.6998553295815744 3.35404921017277 0.16601221570423186 9 410 234
3.6849829665687652 3.3909333272539373 0.17432786782420284 9 411 223
3.6965467558672294 3.2849496747202935 0.1660164912716775 9 411 253
3.6717154915561134 3.684779482361767 0.1751101749365096 9 412 140
3.679410221380705 3.673551187521122 0.16815005023739227 9 412 144
3.7047107099171006 3.647158994960444 0.1450149288160958 9 412 154
3.659859135308345 3.474236205952208 0.1912464592028016 9 412 198
3.660122973355782 3.435682091981696 0.1872793070898764 9 413 209
3.689773941614906 3.342018919996347 0.16156958744918803 9 413 237
3.6944454918297125 3.3284136110581146 0.15749160678281005 9 413 241
3.6544709683448535 3.5548895547326644 0.18513926708185435 9 414 175
3.68461956098942 3.3124902114983006 0.16241306003912825 9 414 245
3.676569569222582 3.2789064113491118 0.17082132058920196 9 414 254
3.657039782436758 3.687643673187064 0.1748996265057654 9 415 138
3.64542400474209 3.5417954684776234 0.1893894064996915 9 415 178
3.633820790655241 3.4821283561788383 0.20181355401798395 9 415 194
3.6501135691108004 3.437366404168601 0.1874312966314533 9 415 208
3.6717689055170055 3.38561550159459 0.16813076610900168 9 415 224
3.581184116760757 3.700696517425675 0.24208304988223128 9 416 125
3.6652173245891877 3.345264069914783 0.17062777533184592 9 416 235
3.643563668550744 3.5667735483167577 0.18131409243321128 9 417 171
3.660324717422145 3.3765816200803758 0.16986210977627048 9 417 226
3.673893724415537 3.2933744784330967 0.15890107088914185 9 417 250
3.6595616881785364 3.6297876839225576 0.1598565393752056 9 418 155
3.6169546700160105 3.4923136511554054 0.20393026022703808 9 418 190
3.6531789034792395 3.4072457956227 0.1712873444015488 9 418 217
3.643952831642297 3.5926048058068414 0.17103977977863138 9 419 164
3.638780015914601 3.5801882895315504 0.17630451636603883 9 419 167
3.6210611733287186 3.535691838663961 0.19438525958369235 9 419 178
3.62632655807903 3.4501132720330046 0.19137713342275275 9 419 203
3.648294186056308 3.342983209102894 0.16818128412884015 9 420 235
3.575141394445771 3.697693081666059 0.22569451369290228 9 421 126
3.6510167645473866 3.6281789277213763 0.15403523400362484 9 421 155
3.600904945116498 3.499473590016831 0.20100836717503778 9 422 187
3.6077741219752504 3.4877256108188863 0.19463104779180895 9 422 191
3.6392567665603286 3.4122769078223265 0.16592151052125725 9 422 215
3.6596923141448734 3.30994056032384 0.1485674412046185 9 422 245
3.5826740069296465 3.692050939450145 0.20955659595718634 9 423 129
3.638844129602483 3.6246477671452277 0.15654996090411477 9 423 155
3.6206680804648066 3.554821239318264 0.17590534668621527 9 423 173
3.612308719429622 3.4790410245142356 0.18585685405829633 9 423 194
3.614077155138591 3.4482629872787918 0.1848769184246808 9 423 203
3.630911555011031 3.664491641592421 0.15864860304425554 9 424 143
3.605155296837815 3.5188934964137397 0.1872804354729123 9 424 182
3.6339689375676523 3.397547611288377 0.16209036757232553 9 424 219
3.5993873007259376 3.486435973213779 0.18912264743995744 9 425 191
3.604380800464389 3.4290763571923915 0.18561764766590727 9 425 208
3.62895244965057 3.3615452467071383 0.16319713434734284 9 425 229
3.572037802296068 3.6993974434831554 0.20626072949443763 9 426 126
3.5825696632774586 3.693842691802421 0.19605502524416174 9 426 129
3.611583093456496 3.5426969483246697 0.17121666720231765 9 426 176
3.6304280090323253 3.3550739001031893 0.15724111804804464 9 426 231
3.6517593732396505 3.3129958247755864 0.1373139186981569 9 426 244
3.601428051921971 3.6715434068024537 0.1734821214395479 9 427 138
3.603993311247351 3.634394624256551 0.1718527765793323 9 427 149
3.6161630068195523 3.611176502182186 0.1604282103646404 9 427 157
3.5928028598375352 3.4577439795220157 0.18713914868820636 9 427 199
3.6103573268040448 3.4173602523408557 0.17082593622759168 9 427 212
3.631789665721087 3.274508433519801 0.15316792154746328 9 427 254
3.58558054368693 3.6826542094342196 0.18426375012719043 9 428 133
3.60431730769972 3.589862546505344 0.16799615814918645 9 428 162
3.643366468773001 3.308415202029477 0.13622173103180835 9 428 245
3.5547186589449833 3.706966199132923 0.20969373156360982 9 429 122
3.5878152635038387 3.5052215915412424 0.18177612549656885 9 429 185
3.590226893162922 3.4853072932389937 0.1798680491971658 9 429 191
3.598299338184787 3.4150224195864762 0.17356889277114584 9 429 212
3.612753821273632 3.3836770351781746 0.16000255889031223 9 429 222
3.625464135690251 3.295014816739729 0.14955184878741545 9 429 248
3.595466242829092 3.5634033676679677 0.16818175843408878 9 430 169
3.6220939213076 3.329803261020122 0.14736954125839086 9 430 238
3.6249046209664666 3.2634421258437047 0.14618305372421547 9 430 257
3.587942006277112 3.6446279709299922 0.16449972514796807 9 432 145
3.5858074895932415 3.4610807968582185 0.1710917789878783 9 432 198
3.5860746511569355 3.430167843912618 0.17157511850726848 9 432 207
3.5907938107053816 3.3937162190954817 0.16312548074123234 9 433 218
3.6000861114850196 3.350700304964328 0.15484626660934553 9 433 231
3.5427731601146135 3.701277353553203 0.19935674960488603 9 434 123
3.5531868458184013 3.6992824824935084 0.18892250144581801 9 434 125
3.5806763987526824 3.6118035686458696 0.1633793403059225 9 434 154
3.5967759506527237 3.3815303265712338 0.15277670125998322 9 434 222
3.6016735088969805 3.330385318448508 0.1490912673593312 9 434 237
3.602715613895461 3.2957442198550875 0.14888524601223918 9 434 247
3.562194186585007 3.683550706929037 0.17568694060745327 9 435 131
3.5743733290835165 3.647680610437448 0.16426261375969808 9 435 143
3.56357313244362 3.523994489887807 0.1781816820640889 9 435 178
3.560760702700784 3.5060815020945983 0.18145800940985146 9 435 183
3.6243916774794553 3.267723627032281 0.12301193268597865 9 435 256
3.6192967511265226 3.2564085788480366 0.12843232918572722 9 435 259
3.5760009371473496 3.452941297350788 0.16276536625744975 9 436 200
3.586618995694203 3.4247599506729145 0.15269742540760478 9 436 209
3.592932014784383 3.2945090081621244 0.1494795895548542 9 436 247
3.6146037526529327 3.2735001612613113 0.12804019274316936 9 436 254
3.573275363504197 3.675894074750256 0.15548322370212997 9 437 135
3.576051543478917 3.611620572725274 0.15423176891352397 9 437 154
3.5746648906449954 3.6007617879523357 0.1559058501597339 9 437 157
3.558578982894401 3.5776485549008323 0.17281470219371808 9 437 162
3.551034481387743 3.504258406542284 0.17773246703968604 9 438 183
3.5994969964007013 3.3728259036999173 0.13155050390807133 9 438 225
3.542423993168234 3.5558480025498236 0.18072380579339065 9 439 167
3.570602322983208 3.6214465282208845 0.14568443751597204 9 440 151
3.5829586851495874 3.3870711187025675 0.1387540032674326 9 440 220
3.596907820113084 3.309937909864893 0.12633779784385912 9 440 243
3.603841688370281 3.2760856545092665 0.12005593881245558 9 440 253
3.5652700223958154 3.6336252857306968 0.14623707927306429 9 441 147
3.5315248123047964 3.5294560971405984 0.18350752563479555 9 441 174
3.5412539083043897 3.512527257084185 0.17391387345514264 9 441 180
3.5452789586409437 3.473259329926468 0.17073618372324373 9 441 192
3.5655559591921673 3.5930455612168926 0.14231094640126662 9 442 159
3.5438520784213217 3.4630827296742286 0.16789918154584482 9 442 195
3.5483468719479943 3.4542167982587832 0.1634785108775174 9 442 198
3.5881491403840915 3.3644977855756593 0.12460785133680718 9 442 227
3.5917510450654913 3.288533081318429 0.12275612866599728 9 442 249
3.5950842416197504 3.2436602810593644 0.12041826848636217 9 442 262
3.586124687683853 3.3330210454663005 0.12277427156827647 9 443 236
3.5129666100903902 3.710465952651872 0.1847427055509514 9 444 118
3.541939244719267 3.5038985269117533 0.15974286048321762 9 444 183
3.5551615478690675 3.419348120581449 0.14809439666221236 9 444 209
3.534863433846998 3.552650688030403 0.1613329216702457 9 445 168
3.5555252351534437 3.447484616361502 0.13777332149934507 9 446 201
3.5588354537095146 3.4038257348047063 0.13539178388553608 9 446 214
3.5606650288355373 3.6075775512209503 0.12379354149738075 9 447 155
3.5480834568930377 3.53784989311051 0.13870048329136608 9 447 174
