3.8819469519172856 3.949718730465227 0.8124960625735022 9 162 51
3.8942159248725154 3.9965252549249786 0.798028811941149 9 164 39
3.879615687576389 3.925556832073048 0.8009463446203369 9 166 59
3.887286083479765 3.9132398854723807 0.7981627487416064 9 166 64
3.8698674007332485 3.956633699697067 0.8003111669069578 9 167 48
3.8821025365933544 3.922416966655291 0.7896279312116544 9 169 61
3.8725415100637592 4.035836098908855 0.540776230205233 9 236 41
3.8095673417300997 4.045608411124623 0.566156936658736 9 239 28
3.8774094325397996 4.041221938824985 0.5256739085914937 9 239 41
3.8659584639912454 4.017370762180708 0.5337853420905097 9 239 46
3.868372602660137 3.9849855998074633 0.5300490584076643 9 240 56
3.8671558837068556 3.963598036484004 0.5318950371779025 9 240 62
3.794273400530966 4.041459588283323 0.5679432183213178 9 241 27
3.8635728871116735 4.041901624302159 0.5260075686814925 9 241 39
3.8835436542646127 3.9556599275409066 0.518421776400581 9 241 67
3.809826080829791 4.035003094844785 0.555021250492234 9 242 32
3.780639429378872 4.041540931155183 0.5686103811564784 9 243 25
3.872322265379397 4.027844063306729 0.5134407857018775 9 243 45
3.8604723229372784 3.9865595707551074 0.5228190182081758 9 243 55
3.8674190042675587 4.015489055127776 0.5130704752585376 9 244 48
3.8029464334063285 4.036861247171056 0.5475455360145844 9 245 31
3.7552573268828056 4.039294780508363 0.5691966756492657 9 247 22
3.8301153381306796 4.037869511544528 0.5229282851855128 9 247 36
3.87841756176065 3.9716673742578052 0.49649595846997685 9 247 63
3.8692965573814044 3.9544363636569466 0.4949592218345724 9 249 67
3.8653232577433414 3.939192124639967 0.4941931596254838 9 250 71
3.7681842123273817 4.0352740269751415 0.5423178756986109 9 252 27
3.877971803293848 4.04239941885132 0.4726536570970963 9 252 44
3.867132480074817 3.994964290286519 0.4779153909359073 9 253 56
3.8673912238983466 4.052114742626918 0.47064451105081306 9 254 40
3.885070912609053 4.042924023959201 0.45159161213654 9 256 46
3.870167050017309 3.995619838732193 0.4636463459135538 9 256 57
3.878726129042642 3.989712307651862 0.4584740567623209 9 256 60
3.8127351648500767 4.033847873967896 0.4904521721472035 9 258 37
3.8687611800531965 4.004415165858946 0.451699567279527 9 259 55
3.866576394555321 3.9538689714479176 0.4557997126928879 9 259 69
3.865989719235757 4.046089257798473 0.4471424358079299 9 260 43
3.780921241401066 4.024283011798618 0.49971198119461513 9 261 35
3.8727796177266596 4.036737140004736 0.4390560565581705 9 261 47
3.878637676290885 3.9946568604349455 0.43328267712332513 9 262 60
3.874354516483801 4.028732171009942 0.4300882774590409 9 263 50
3.881600273095181 3.9979587276170077 0.42274903765703775 9 264 60
3.731375639491367 4.030682894887839 0.5163799605202808 9 265 25
3.859131390755472 4.060723348942989 0.43007046554237793 9 265 39
3.770492718291156 4.03248434429721 0.48639274960987855 9 266 32
3.8681688689570572 4.024283871687833 0.42182742587036914 9 266 51
3.8679083250581296 3.9637083895042915 0.42524173866173487 9 266 68
3.8595485880965104 4.066353123436625 0.4211249560686203 9 267 38
3.868471801809636 3.962067934840753 0.4165359111332556 9 268 69
3.867646490207068 4.062324540291967 0.40748698536274675 9 269 41
3.864284515302928 4.028265737033188 0.41157778335443784 9 269 50
3.7371775435613612 4.028913170593259 0.4931812739987602 9 270 28
3.8706566950105987 3.997018875307772 0.404726818810508 9 270 60
3.778194675396135 4.042597792916307 0.45669181776975853 9 272 32
3.8622388228878104 4.087855200343266 0.3928058060178399 9 273 34
3.8654275534060107 4.0217282612978495 0.39419253252502817 9 273 53
3.8692672680658102 3.9988042637648613 0.392805489536421 9 273 60
3.852922056570063 4.090260623297649 0.394803223416033 9 274 32
3.8716888087768435 3.9578932958020814 0.38907997274599126 9 274 72
3.708732659983968 4.038517020242062 0.4925789693591289 9 275 21
3.829627775641315 4.0849063396818295 0.40268051837472174 9 276 30
3.8764562470275745 4.055963858641177 0.3719008954408958 9 276 46
3.8666254702596143 4.01786887042784 0.3807515943022646 9 276 55
3.871348494932162 4.090018811882176 0.36927505595728416 9 277 36
3.7144411773329296 4.038360361198948 0.47693328279498703 9 278 23
3.726090342021826 4.032535593105324 0.46914328916214676 9 278 27
3.8754335216562588 4.082579012236988 0.3625145751133503 9 278 39
3.8747570386516013 3.9699899384866906 0.36908826293036334 9 278 70
3.874352323133733 4.014022422559755 0.36264911365771146 9 279 58
3.872257099379201 4.024586634536438 0.3592004282855652 9 280 55
3.710282507501296 3.5782969680146235 0.49698122038818116 9 280 164
3.7105804978942034 3.5654581021631433 0.4974698130661601 9 280 168
3.8669692013636405 4.102067123099252 0.3543586535226939 9 281 33
3.66328317588616 3.6951365983726117 0.5197873862932345 9 281 122
3.65084551892002 3.630599989405219 0.5320473707632298 9 281 141
3.6567492974611713 3.623462500670699 0.5282820903817402 9 281 144
3.875446179815942 4.010001030493181 0.3490367804188068 9 282 60
3.871094274604882 3.985832571338014 0.35342551130124145 9 282 66
3.6569507686825826 3.6867237328164015 0.5209176832268243 9 282 124
3.8194118348334047 4.088812313148473 0.3800773871735368 9 283 29
3.8635506438189484 4.054855504418823 0.3506475536568212 9 283 46
3.86944843583811 4.047433977374236 0.34687236716931125 9 283 49
3.8665521387183586 4.031259452026877 0.34980652014195845 9 283 53
3.86530915389179 3.9699056535680146 0.3496758284820185 9 284 70
3.6521036316593847 3.6512884707932014 0.5187094313335785 9 284 135
3.766513758122329 4.067876819458341 0.4104864279221083 9 285 26
3.666244268788119 3.7112541609628016 0.5015466578577437 9 285 118
3.652277010209644 3.6800918819752555 0.5132197551043995 9 285 126
3.8596027981944703 4.0915461661736225 0.33837229491371046 9 286 36
3.7055236104220786 4.05417436739416 0.44683705545533536 9 287 19
3.8701453007319433 3.978649276438419 0.33259499341526544 9 287 69
3.8690368704327964 3.956230819765177 0.33461936132320824 9 287 75
3.655372474529737 3.6887451016961172 0.5029055874559174 9 287 124
3.866503543968967 4.090425657156329 0.3246898286077826 9 288 38
3.849150659580453 3.996942797283563 0.34233680362899577 9 288 61
3.5660483626298998 3.7526169290863787 0.5600414264265499 9 288 90
3.6058430852486647 3.7203342862052184 0.5330909974451405 9 288 107
3.64981367446258 3.7184111077272166 0.5014629675769278 9 288 114
3.863242201356913 4.045702618891374 0.32509153860679096 9 289 50
3.654408495362432 3.661007916473735 0.49746020097661403 9 289 133
3.7828401236434 4.072625836969319 0.3776473986128346 9 290 29
3.845877011070959 4.004934182573572 0.33116703388263824 9 291 59
3.860231502503951 3.980299055177512 0.3220490709165438 9 291 68
3.868991363395226 3.952191660072741 0.3172037275636901 9 291 77
3.566303081217463 3.754611335378897 0.5489012220407847 9 291 90
3.7200832002097064 4.072752737977369 0.4110910089148798 9 293 18
3.8446473603789193 4.038529095598314 0.32144111046277635 9 293 50
3.854375725369234 3.9679196239915346 0.3181836220117933 9 293 71
3.859454662988723 3.9233580449829333 0.3169072247685323 9 293 84
3.567917034876591 3.7626537625242737 0.5400004374114338 9 293 88
3.739460248757966 4.069452946663082 0.3929078173502163 9 294 23
3.7579284971387104 4.074493668165794 0.3790093968799091 9 294 25
3.8541683198709586 4.001360572790328 0.31206763841171226 9 294 62
3.8548192327938793 4.091098970264775 0.2977415062019124 9 296 38
3.862942167071319 4.019027991936101 0.295692955562735 9 296 59
3.8480241364501846 3.9670122781163806 0.30965054576156703 9 296 71
3.565927552176965 3.754566979374828 0.5309429990772636 9 296 91
3.6312787170665146 3.717920262664815 0.4844257445043729 9 296 113
3.8473848148146876 3.949360129419926 0.30666777957785274 9 297 76
3.8511506131538358 3.9259044933414198 0.3051589212652379 9 297 83
3.569794600635502 3.730029499257054 0.5257472101186813 9 297 100
3.6404000899489932 3.7067942150092765 0.47439857308774247 9 297 118
3.848674834305655 4.056458531224802 0.2953235512674983 9 298 47
3.855274262350913 4.049399894939661 0.2907773753982159 9 298 50
3.858784805654347 4.036795296362623 0.2888495105792286 9 298 54
3.758839981322966 4.073044927546006 0.35739017814959606 9 299 27
3.771668333818461 4.074275481972768 0.34769000687182516 9 299 29
3.794002978144502 4.081387683750217 0.33052590898062384 9 299 31
3.6332650889413447 3.7016572727408446 0.4722809470376039 9 299 119
3.831214411184753 4.094992410781442 0.297402419610181 9 300 34
3.8524720662518064 3.9399296577595564 0.28999743447869464 9 300 80
3.862840530333207 4.034548511447603 0.27240860428364755 9 301 56
3.8553136539646973 3.978862797003772 0.28119697748362116 9 301 70
3.636539232020943 3.6978892674091757 0.4622589574349183 9 301 121
3.685803033660066 4.058913016639247 0.4008751529723662 9 302 18
3.843123094660971 3.940305994238658 0.28808798663515045 9 302 79
3.8349176066418322 3.914275751288323 0.2957642198435826 9 302 85
3.6022102950127093 3.7269035136654667 0.4827964830079887 9 302 107
3.7183065487027633 4.06786055682091 0.37155782252582736 9 303 22
3.8586297803134673 4.019223013261455 0.2673982306141349 9 303 60
3.849994345015804 3.9776788512760555 0.27629034601856883 9 303 70
3.8470164673728 4.094201687780554 0.2675522853863963 9 304 38
3.8438577459593892 3.9204427513265 0.2796614701943474 9 304 85
3.8561369234086094 4.067591597203416 0.2575210198890132 9 305 47
3.853325499728838 4.051166932198637 0.26059490207305736 9 305 51
3.5584235409578704 3.7601809485450803 0.4993194454283447 9 306 90
3.6087182080985327 3.722961039796165 0.46268684618717826 9 306 110
3.8526278735690487 4.056342573389608 0.25174038226467443 9 307 50
3.8569910332803774 3.936974826290465 0.2550527515749281 9 307 83
3.607839220772076 3.6919245791732513 0.4612341357761678 9 307 120
3.8513850548011797 4.0972121232939305 0.24584747797311013 9 308 39
3.8464058989029075 3.969009526448084 0.25689286037472225 9 308 73
3.581560869726524 3.7270293548428954 0.47576397998144415 9 308 105
3.699131003486825 4.071263025545494 0.36117306999699994 9 309 19
3.736697966893337 4.061705379030711 0.3324844688856585 9 309 29
3.8034932539148136 4.093749115063274 0.27872361541070645 9 309 32
3.847028388121392 3.9297530414961725 0.25405794359569445 9 309 84
3.598426439735169 3.7200194185446693 0.459224231569074 9 309 110
3.856055561759189 4.109549037193616 0.23234749524254283 9 310 37
3.8474910938070384 4.034006096580497 0.24327732215225728 9 310 56
3.8462625904565497 4.01854180546712 0.2451051124231287 9 310 60
3.906585674900127 3.9500013234669655 0.2018619927458436 9 310 87
3.5651622700175776 3.750939269635472 0.4795890356906025 9 310 95
3.5605934639997194 3.7426152833816033 0.4836234448361545 9 310 97
3.581056880937771 3.716288929705465 0.465298943817116 9 311 109
3.693213021205886 4.0703025635461705 0.3533535959801233 9 312 19
3.7044405059644547 4.064218939742785 0.3448691297930675 9 312 23
3.85814710691068 4.060702559301723 0.2242237215838423 9 312 51
3.8972159447823524 3.9468588493278753 0.1999177721528449 9 312 87
3.8546282882622975 4.1164796841795255 0.21458515174582082 9 314 36
3.8579997447778056 4.107381812315596 0.21242928115133197 9 314 39
3.8556528014660025 4.072338705481881 0.21626496982632593 9 314 48
3.866733500011517 4.071495407724856 0.20753964830344973 9 314 50
3.8506099970383683 4.017285556590119 0.22336425261111326 9 314 62
3.8520704618197565 3.9883998396290523 0.2238380333044121 9 314 70
3.852311072607332 3.9439950024213957 0.22615337966844828 9 314 82
3.70064859951215 4.065674479989904 0.3309180484428049 9 316 23
3.858126983185851 3.937528329891807 0.21261047180168724 9 316 85
3.8664318886128637 4.108172305671032 0.1916355685557456 9 317 41
3.8589183926183805 4.024793250962506 0.20236832979564445 9 317 62
3.8538127807168614 3.9733752291872313 0.20936478689615057 9 317 75
3.8564023368659317 3.9635788297836094 0.20784766904921126 9 317 78
3.758170339850947 4.071328445338575 0.27151445988756007 9 319 33
3.845455671984989 4.0338367178517505 0.20331877681887844 9 319 58
3.5673355590943077 3.763952323531786 0.44271040308731036 9 319 93
3.847867460213581 4.118435147112621 0.19189162480644661 9 320 36
3.857579001101924 4.071904196887063 0.18668393318519683 9 320 50
3.67626287324908 4.067942317323798 0.32929291376469605 9 321 19
3.6981839796495155 4.069025098954277 0.3114467886288854 9 321 23
3.837962403498995 4.0239239318017574 0.20061058268394039 9 321 60
3.8438766403120255 3.937962123888168 0.20070240088442248 9 321 84
3.8542010226533447 3.9321436189640275 0.19265725076804419 9 321 87
3.8218004213554604 2.559006616498227 0.29705600371068797 9 321 464
3.867047751621156 4.071999271392864 0.1695237207790261 9 322 52
3.7484176330682826 4.0796643206143495 0.2612349412685633 9 323 30
3.8538956784053013 4.016230418300363 0.1786819110498905 9 323 65
3.841116265224399 3.9940548476670763 0.19038638534186703 9 323 69
3.6067777652653743 3.71329075205888 0.39783658871294936 9 323 116
3.80799824666839 2.523409280159689 0.30129393176371044 9 323 475
3.8487259851206623 3.9879666937506477 0.17979715559316278 9 324 72
3.8458127411349956 3.9452199494663573 0.1846254809735035 9 324 83
3.6405354104991847 3.7031084665995344 0.3667281267973195 9 324 124
3.715322951921091 3.711635192697318 0.3049320737127581 9 324 131
3.845517508893257 4.1109019561931275 0.17068041166897974 9 325 39
3.8559639497168448 4.030578818215414 0.16667732545475022 9 325 62
3.837056295524664 3.971226434753958 0.1856230669545409 9 325 75
3.8959876516550205 3.9532902264482344 0.13816995654311404 9 325 88
3.7009746356306463 3.716391486982285 0.312130143118472 9 325 128
3.815735864890846 2.5367800866669654 0.2851385686765986 9 325 470
3.668403079047156 4.071038313263613 0.3144230486073474 9 326 18
3.8693168864932765 4.077327099228876 0.14821537801664975 9 326 52
3.713090404171207 2.7164845322656994 0.35503573221782125 9 326 426
3.805304648735426 2.5711257227757924 0.28723253818504024 9 326 461
3.8470605747269864 4.1139566929445035 0.15973553985914468 9 327 39
3.8501395953179487 4.081910430374942 0.15902076661703024 9 327 48
3.8440168391923697 3.9767920051374546 0.17011367711925995 9 327 75
3.556921420199715 3.7362001785278123 0.4217023377081286 9 327 102
3.7039104791313004 2.668570979670539 0.36110313517048276 9 327 441
3.853076837429557 4.0733545386092 0.15229642471714344 9 328 51
3.5525446971987638 3.756256763948967 0.4202780325493023 9 328 95
3.6023540078729863 3.7206493845142092 0.3809194346337561 9 328 114
3.610963655543631 3.7181866811887696 0.3739044821306332 9 328 116
3.8095712706828513 3.502375896994784 0.22120165765120592 9 328 200
3.8191813026899184 3.4903160221527374 0.21390557770130547 9 328 204
3.7218353260164636 2.726649237481771 0.33861216246237724 9 328 422
3.812574699497826 2.5355119583608112 0.27415249258931573 9 328 470
3.6804012541758286 4.06862843935868 0.29179510825628885 9 329 22
3.8544409832649618 4.1321027092065705 0.1429931743735624 9 329 36
3.8578844392876137 4.0506650104164486 0.14479683169260182 9 329 58
3.8543540174067497 3.935096502865049 0.1543766309143626 9 329 88
3.6310666094463455 3.7181670943125154 0.3530640099759097 9 329 119
3.7738469905261303 3.3550727326103877 0.2548249260897477 9 329 239
3.706955106671617 2.62342252928904 0.35262301469704505 9 329 454
3.7397401276953706 4.077590294606075 0.23731084204730224 9 330 31
3.856590814497901 4.123124381736096 0.1368985564984846 9 330 39
3.8366373432616614 4.080444608950425 0.15605132762683027 9 330 47
3.5563139357571494 3.7254282532564873 0.4110668579642953 9 330 106
3.8065994483570336 3.469606434564494 0.21630214337055165 9 330 209
3.7948461984111153 3.340995924558984 0.23353132824822165 9 330 244
3.8038305168556596 2.5862692542346215 0.2693943982288194 9 330 456
3.853405560993986 4.076555438248792 0.13742526320403803 9 331 51
3.8541358651931032 3.9783222368920264 0.1424650358544146 9 331 77
3.800428076493306 3.4214173383075 0.21961751301877297 9 331 222
3.816791014995154 2.54951440940562 0.2560517868780081 9 331 465
3.8526281196157477 4.126542860251455 0.1303732967824951 9 332 38
3.8578805504382507 4.000274899095463 0.13322200569097475 9 332 72
3.8455977887041 3.9292828049888344 0.14766274197323037 9 332 89
3.552514961614315 3.7526850860139946 0.40481519471082295 9 332 97
3.734991988437768 3.6931480394006426 0.25447390736530173 9 332 140
3.799360743523684 3.453959959763855 0.21401175251809335 9 332 213
3.712773023829101 2.7165043641177906 0.3294665289986187 9 332 425
3.691357461299605 2.672222230756787 0.35006449778866955 9 332 440
3.7907234432489054 2.59237751453344 0.2709300406771671 9 332 455
3.811006692226925 2.518726285498884 0.2580809438451992 9 332 474
3.6640360539942596 4.075203143728044 0.2879655225080926 9 333 18
3.8482903539744227 4.02994598347958 0.13477368437817683 9 333 63
3.8083374040786406 3.4199573251176205 0.20374244851371337 9 333 223
3.7308508140013714 2.7285351935850866 0.3091462562524936 9 333 420
3.8125051558824 2.574289078147171 0.24899789929482674 9 333 458
3.8221840056912018 2.556933518987553 0.2418147251470515 9 333 462
3.8412492654879986 4.083557771957589 0.1328202901613873 9 334 48
3.851494383504783 4.074612011702558 0.12464408434705088 9 334 52
3.5556035160808137 3.749325551619578 0.39448764293979854 9 334 99
3.7461904417178418 3.6881891301864944 0.23630832297268212 9 334 143
3.795577368548095 3.4898071942695807 0.20586069637712967 9 334 203
3.784328900984825 3.3756542856928786 0.22199706242906903 9 334 234
3.6912792839782274 2.694119586199858 0.34030614192775444 9 334 433
3.6990423308877967 2.6257816606528235 0.33766577563210354 9 334 453
3.582264168975971 3.7283322257370672 0.36902972280404156 9 335 110
3.590039213619458 3.725622178629802 0.36256680675162034 9 335 112
3.8042728432491892 3.4668741808036003 0.19513017840504743 9 335 210
3.79403717535602 3.4426907739564196 0.20524293329874266 9 335 216
3.8168799173974866 2.5249656182091123 0.2388545371695554 9 335 471
3.7035723814405785 4.073996747928062 0.2413284468371406 9 336 27
3.845810102602776 4.118855407135137 0.11721747718269127 9 336 40
3.837586196794251 4.041724094753036 0.12870788226679375 9 336 59
3.8552393822321487 4.044485804166784 0.11346682255999863 9 336 61
3.8567874752282347 4.010980949424543 0.1140836805599259 9 336 70
3.845143081645219 3.981653188827859 0.12572915499282544 9 336 76
3.5256982379767767 2.9425993308848026 0.45877719261194194 9 336 363
3.689007353910175 2.6770020662585354 0.3346353182591466 9 336 438
3.8055330686237996 4.112978135702613 0.14722029038752038 9 337 35
3.846407870388929 4.108856642709159 0.11242021616184261 9 337 43
3.5673925705176868 3.731991246136549 0.3734393439737591 9 337 107
3.6681745777820836 3.6993480048320286 0.28893817648833764 9 337 131
3.723269936840455 2.717886148617111 0.29858668298861857 9 337 423
3.7323035001153464 4.07381379636262 0.20772389421698945 9 338 33
3.8476939608443947 3.9696340246465276 0.11451493529572998 9 338 80
3.5866743841372646 3.725914166990296 0.35317233892800126 9 338 112
3.6013414452759207 3.7231073301264437 0.34071927341726505 9 338 115
3.7789908950025444 3.5192079239912113 0.19974377838604274 9 338 194
3.7846692789255685 3.506335476260406 0.1956063573559983 9 338 198
3.6785525896886453 2.846732146786557 0.32515309141449267 9 338 387
3.82182732318587 2.5676175621738615 0.21810909382737598 9 338 458
3.804244920010692 2.5304778265476817 0.2353874969477392 9 338 470
3.711943896878215 4.079137393659456 0.2204358461047886 9 339 28
3.8457792423674486 3.9352472895283883 0.11328252241555359 9 339 89
3.5581476065154836 3.760133547474033 0.3717058115040208 9 339 97
3.782037760876844 3.473469971203049 0.19512073608441716 9 339 207
3.7915214166602578 3.4286745354269232 0.1895375898716367 9 339 220
3.681925084605425 2.8258883604510965 0.31914348011481586 9 339 393
3.8463154948562996 3.993536504790153 0.10454232281676146 9 340 74
3.6623373495707683 4.082321082174766 0.2543427110374319 9 341 18
3.847436695794393 4.125230972692355 0.09099721143272732 9 341 40
3.8444006750296533 3.959076708551044 0.10330973083874939 9 341 83
3.7691940419572583 3.470864007524636 0.19708862094879542 9 341 207
3.794058046152988 3.4224567463368807 0.17830087174474807 9 341 222
3.7062961148865563 2.7162926115410557 0.29568019100930565 9 341 424
3.6895974556100875 2.6438602463979564 0.3144082974508773 9 341 447
3.8447656075545122 4.0901217209331096 0.09044605085902169 9 342 49
3.8418693263299124 4.0501281387532195 0.09530277027739342 9 342 59
3.851206064141519 3.944460802386465 0.09332146775653416 9 342 88
3.657872970561688 2.8156161003659124 0.3276989173085738 9 342 397
3.812175970856307 2.5281413374234933 0.20991502332716516 9 342 469
3.6803198344407906 4.07951379315536 0.23000975081474317 9 343 23
3.8442173583508676 4.029544197581972 0.08953307511298547 9 343 65
3.8455850769494315 4.003539713905622 0.08985414139907033 9 343 72
3.844143476033074 3.933972776474538 0.09517546013378109 9 343 90
3.549483070007242 3.7584396848896624 0.3632166354437394 9 343 97
3.5831313863237524 3.724180189418349 0.33577737129371243 9 343 113
3.6895913489003362 2.692513720492708 0.30284634887796424 9 343 432
3.816804840799477 2.511333034458694 0.2021220732291833 9 343 473
3.820843644632345 4.130420990127155 0.09922380379551576 9 344 35
3.8530255617182383 3.993276341540757 0.07898597502507454 9 344 76
3.8023661016083925 2.526329980673807 0.20917317151913029 9 344 470
3.7534363745176185 3.536000174130445 0.18848952727255042 9 345 188
3.7481190889822855 3.5023734669680326 0.1951403660716018 9 345 197
3.681990720030754 2.6733573885039266 0.30188632476405086 9 345 438
3.690663195386943 2.6609525769378286 0.29497294895396187 9 345 441
3.840716973818002 4.091774400495124 0.0741454745363308 9 346 49
3.838037910093817 3.944782223272264 0.0851225190973528 9 346 87
3.5396389548124723 3.746121242806542 0.3604896583879893 9 346 100
3.6364843236560382 2.8209365575697127 0.32908295612969796 9 346 396
3.6879116860751324 2.704515613117738 0.29044898920017026 9 346 428
3.8448454340585614 4.026088234719062 0.06937331525032286 9 347 67
3.735743811956927 3.5173702261969093 0.19595657025826307 9 347 192
3.7346410357663573 3.499361639890538 0.19799052607702494 9 347 197
3.6904558835786543 4.081148118548142 0.19853590014441047 9 348 26
3.7230215032564327 4.085213333787687 0.1693200297852524 9 348 31
3.752444832524212 4.093767611441279 0.14263665529691627 9 348 34
3.8422199266316577 3.9564092497557444 0.07081796393890372 9 348 85
3.5424638031380877 3.7488546853424896 0.3497290776245343 9 348 100
3.743375551788671 3.4700623661273555 0.18732323949200613 9 348 206
3.8387230816202633 4.120619584200081 0.059306702666301225 9 349 42
3.84690667975441 4.0948873943413595 0.0535127568618563 9 349 50
3.5947776589618297 3.71393731137547 0.3010085929791786 9 349 119
3.603260353205839 3.708005850251312 0.2937837629207196 9 349 122
3.721581110397307 3.54571454990807 0.19768447343179973 9 349 183
3.7227982939571174 3.4932724013926433 0.19968019876132104 9 349 198
3.6422547147501607 4.0778724045277945 0.23282957158375828 9 350 18
3.844292075242156 3.9592867721826757 0.05881784911537036 9 350 85
3.5394832852755806 3.7392999859378717 0.3448191178109741 9 350 103
3.7213168809543795 3.4791327266387433 0.1972382239519086 9 350 202
3.685772089885115 2.6926380858910828 0.2753637029066831 9 350 431
3.7071006315526747 2.6225240736244793 0.26038311095009914 9 350 450
3.844903183013751 4.076396138190997 0.04635724874329128 9 351 55
3.8484206982418945 4.055276038886907 0.04443990356256933 9 351 61
3.8439991790541614 3.952307625753823 0.05448084770612116 9 351 87
3.840613731278742 3.9351239274483767 0.05853626590633132 9 351 91
3.71051008707009 3.5080870803551534 0.20063930172622557 9 351 193
3.848840644980967 4.114790312906669 0.03550791487281524 9 352 46
3.5516699776180474 3.727663264773666 0.3263531218376752 9 352 109
3.562428822700336 3.720092238393921 0.317096643986863 9 352 113
3.845961123132035 4.055823231693941 0.03653603624749868 9 353 61
3.826642154699557 4.009846163150088 0.05673316658948746 9 353 70
3.831904492327457 3.9783057496891976 0.053833993727219864 9 353 79
3.7031120623093186 3.5416235439886092 0.19616846273185518 9 353 183
3.74057022467984 4.092321673553194 0.12500763261030112 9 354 34
3.844284351096851 4.075235064089719 0.03185142503685845 9 354 56
3.8377321581662733 4.0326140373257395 0.0403205876250996 9 354 66
3.840119989469298 3.929734728109204 0.044235736967744854 9 354 93
3.682432744117988 4.083099535679013 0.17376357761087902 9 355 26
3.8443882441942354 4.1152185424513 0.024322210037680092 9 355 46
3.8376573645785585 3.9833223376242493 0.03826221492260706 9 355 79
3.834556105319218 3.9670953889367437 0.0370057930868819 9 356 83
3.839634329724425 3.9427906405304967 0.03380462717480737 9 356 90
3.5532573418588997 3.769210868877761 0.3058543588851719 9 356 97
3.842380697219995 4.127804427770655 0.015238702994348596 9 357 43
3.846350977030067 4.118629347791163 0.012141996542770706 9 357 46
3.8363319494835713 3.9999065832897145 0.028375746141718228 9 357 75
3.5565896977877443 3.717293078994035 0.3017002051820299 9 357 114
3.691224533808452 3.550000449981261 0.18815306820700672 9 357 180
3.6559872442690287 4.085595719262212 0.184159455500295 9 358 21
3.8363438185419394 4.14058875409482 0.014932243905063647 9 358 39
3.585403866887321 3.698912900646685 0.27208264508745206 9 358 124
3.674823827913931 3.500384788348568 0.20159565112487932 9 358 193
3.6311207109038914 4.079640146404866 0.2029341964401734 9 359 18
3.8340736513619076 4.023768306648409 0.018880720565250808 9 359 69
3.835848861919407 3.9472836589942606 0.021791401247945874 9 359 89
3.5631939043826497 3.7763957739152154 0.28368618351213737 9 359 97
3.561631545924112 3.7145170436008716 0.2888094605363172 9 359 116
3.6750220681720482 3.4800997809584833 0.1980654701847886 9 359 199
3.82683924775552 4.121133150108579 0.014690217828871033 9 360 43
3.542966738232133 3.7381244205075705 0.3004624496144852 9 360 106
3.829173336114942 4.0965510090971335 0.008896433388102754 9 361 50
3.8287025317160905 4.0846167106479445 0.010045628834550957 9 361 53
3.823569907218533 4.015762486071806 0.01892166603696044 9 361 70
3.8319261614018285 3.977945995606482 0.013410036212019527 9 361 81
3.827377096445854 3.9483945419022852 0.019400157725393274 9 361 88
3.572778161055064 3.704780791625724 0.270557940601057 9 361 121
3.6865625836928 3.571130156010177 0.17277269801897588 9 361 174
3.663831010345171 3.5399195386638267 0.19120562040163858 9 362 181
3.655173242139551 4.093899261003756 0.16162728040018526 9 363 20
3.812921649426295 4.015376655923167 0.018725895821517735 9 363 69
3.8172772006923186 3.9562917597988783 0.018182305869583804 9 363 85
3.6683335648689903 3.5590342143323377 0.1812839021554986 9 363 176
3.6548966101758795 3.5272304067123477 0.19575695059501141 9 363 184
3.6936506470734365 4.093283743699497 0.12095297407846894 9 364 28
3.82139557596566 4.079374544518468 0.0018650310647316815 9 364 54
3.807828208890878 4.129790570817271 0.006503539917601886 9 365 39
3.676621539878783 3.5940067366007478 0.16218544968512205 9 365 167
3.741572213538273 4.113350109296995 0.0650086021986025 9 366 32
3.810852812963655 4.074946755681643 0.0018423168009118474 9 366 54
3.80302529479013 4.027867785274773 0.012063540156965091 9 366 65
3.8052523619938503 3.9639402504831045 0.013793925871029789 9 366 82
3.8232875115440086 3.923533770786144 -0.0008253136735139055 9 366 95
3.800952513592687 4.000786703352653 0.010572505647798991 9 367 72
3.648558180681552 3.5611084273541245 0.18147088566502156 9 367 174
3.779041129712014 4.125627246982965 0.018822391177715003 9 368 36
3.542824857322682 3.759409389950069 0.2655525440160349 9 368 101
3.5579397061421645 3.715243755071049 0.25382999996605937 9 368 117
3.5878897365152413 3.702857625880178 0.22608399502458143 9 368 125
3.527201935852208 3.7236033914789233 0.27835155448785565 9 369 110
3.787064303216638 4.091118379901662 0.003129294305660224 9 370 47
3.7907687493239344 4.059002315823651 0.0015179547635020274 9 370 56
3.528216661183765 3.7374594975612627 0.27231841162725345 9 370 106
3.7429832133193415 4.123594676154135 0.03843393943666751 9 371 31
3.5292230106098827 3.751370580467629 0.26627125468978097 9 371 102
3.552319747709285 3.711271883640035 0.24650104354601576 9 371 118
3.7738916188750755 4.077233817454349 0.006480526128584296 9 372 49
3.7795928493518436 4.0541635975899215 0.0023790272211594576 9 372 56
3.76916473762729 3.9947307349688823 0.01602246997906942 9 372 70
3.6673485537536 4.106399126884764 0.10268698826656131 9 373 22
3.7230578827639946 4.119674192995422 0.0480064847561974 9 373 29
3.6603317480425965 3.29723647770378 0.15842942099485513 9 373 252
3.7014494308363304 4.1132644800891685 0.06443986009990343 9 374 27
3.7538400475876963 4.107997995097256 0.01392398995251809 9 374 38
3.7670232723179264 3.9840497149992906 0.008640597118169335 9 374 73
3.515394344874364 3.7558914911087586 0.26661853226508825 9 374 99
3.7455003685499593 4.036107888474083 0.021371581451266497 9 375 56
3.755820520463761 4.034980204401872 0.011393272579639069 9 375 58
3.742645433254842 4.000720256868783 0.02629715872547078 9 375 65
3.7588236808542916 3.9689433390378657 0.012474873572210221 9 375 76
3.5411194788610256 3.7182206511972167 0.23961720102188666 9 375 115
3.575178051244638 3.708052024028456 0.20707779755899214 9 375 123
3.7420995020712464 4.068693604264039 0.017702933262255582 9 376 47
3.576699473893714 3.6961323163263513 0.20187456054523567 9 376 127
3.6484929360627696 3.292365187591927 0.15627204854795074 9 376 253
3.6694954487518183 4.112394909678808 0.08117699102371123 9 377 22
3.743413852406152 4.119413834695146 0.008315879710272922 9 377 34
3.6448482693054545 3.2782101570929507 0.15604759575836802 9 377 257
3.733797581486703 3.9462238936409246 0.02327728964181608 9 378 79
3.5839231762401664 3.6806044144120893 0.18679502430673423 9 378 133
3.605733161914679 3.656254889990288 0.1668349140262677 9 378 143
3.7337435639194787 4.118866716506582 0.007804102759630949 9 379 33
3.5024709846033946 3.743223331848066 0.25882077575485174 9 379 102
3.5335810951251396 3.726873686698383 0.22913105770769882 9 379 112
3.6082259032067316 3.600198302396779 0.1632241237863914 9 379 160
3.603536315234069 3.581578958589798 0.16898465422521713 9 379 165
3.634452813263223 3.3213758060020218 0.1543486668572056 9 379 244
3.6332924379980485 3.276796683076036 0.15821030799781766 9 379 257
3.6394285355178404 4.1015573138857855 0.0971666235141373 9 380 20
3.5119130921148267 3.739207599036833 0.24546972124664324 9 380 105
3.580018435811054 3.670095440997855 0.1822893960490779 9 380 136
3.5973314953235773 3.6168476976610937 0.16840560899060764 9 380 154
3.5857179764025657 3.5189892539063115 0.18587026721600752 9 380 182
3.7280986793565036 4.00902883370567 0.010049236499755976 9 381 62
3.5889074200683124 3.4336508933483345 0.18340193078265554 9 381 208
3.6177127261275555 3.356117088834292 0.15953967876742636 9 381 233
3.6169640661650444 3.3254761968842526 0.16215515002451486 9 381 242
3.6220900080583123 3.2618603074879413 0.16095275044588409 9 381 261
3.497352856562248 3.7552725301084244 0.25039417038170897 9 382 98
3.5872260288575086 3.6206812923837908 0.16910419086385398 9 382 152
3.5856265899761044 3.469732601582707 0.17993177360035362 9 382 197
3.607518547265889 3.374545128814295 0.16394809379350184 9 382 227
3.7145762419131967 4.114039198735687 0.007064326184622383 9 383 32
3.4994850139088083 3.7507680610718865 0.244271423201619 9 383 100
3.584913990745546 3.5834582389141714 0.16914396708569734 9 383 163
3.6007378759382984 3.4036017732040578 0.16434643555087636 9 383 218
3.6798116285142406 4.120412685586997 0.03651409059142363 9 384 24
3.504129083197738 3.731644179616022 0.23650288750021553 9 384 107
3.5233354489264848 3.7187422609952745 0.2180370101554443 9 384 114
3.5380907993394057 3.7096255659312583 0.20380177223256069 9 384 119
3.5691415287310604 3.6877048015998435 0.1740133345871191 9 384 130
3.581350599023934 3.6629688972886454 0.16328898566677408 9 384 139
3.574852883828363 3.5669535540118873 0.17569221260795476 9 384 167
3.573266657072077 3.509974342326738 0.18077700063513436 9 384 184
3.5745999709716214 3.483857251267045 0.18104184926135902 9 384 192
3.5844205907360887 3.4367095461964596 0.17408671267937148 9 384 207
3.6136362445635744 3.274534433654423 0.1547395922849366 9 384 257
3.5817685929351244 3.63352929596896 0.16011894108162283 9 385 148
3.5631419326450584 3.4972908100090536 0.1872213472145985 9 385 187
3.6041512691704614 3.3575996517284805 0.1545467167143839 9 385 232
3.585554608232199 3.427565658989706 0.1643929227605474 9 386 210
3.6894845456615704 4.119688572926007 0.01198390422098683 9 387 27
3.695440569985952 4.112795681508121 0.006377728974055641 9 387 30
3.568803011991198 3.6693809654126004 0.16189301930741395 9 387 136
3.5773375461516057 3.5826057981032093 0.15859332844515173 9 387 163
3.556847257520417 3.528987877322888 0.182640240430608 9 387 177
3.573447264641396 3.4380717369978857 0.1714291612272918 9 387 206
3.5931018252773033 3.402839872318699 0.15369765178239536 9 387 218
3.669319236641939 4.128476332492619 0.026942916669934425 9 388 21
3.490554671694504 3.7559480632967377 0.231492170769815 9 388 98
3.531440719278689 3.7090544462249464 0.1928502171493076 9 388 119
3.5595782667097975 3.5567360050675103 0.17365581421071474 9 388 169
3.561927487566118 3.517871289934686 0.17366480217502467 9 388 181
3.560685198128936 3.477866658471435 0.17739230918562243 9 388 193
3.6799337630646503 4.089670980438218 0.013590528587431594 9 389 34
3.4896437468288406 3.78782574114645 0.22614410437275634 9 389 88
3.4952356474624513 3.733724295784392 0.22378389590283443 9 389 106
3.5148169478775015 3.730770773274915 0.2040106118768168 9 389 110
3.5827790179649597 3.636122610383622 0.14059030922967186 9 389 148
3.586617742396748 3.6449996846799397 0.1315001917554266 9 390 146
3.5601231505795172 3.5114754489824875 0.1668390625555516 9 390 183
3.6695386057965687 4.1284917265223395 0.011891136896478027 9 391 22
3.671916034318217 4.119240670805407 0.010024774845038387 9 391 25
3.5635846078495117 3.6928736676436174 0.14752318151072963 9 391 129
3.570930837589723 3.655902751762242 0.14227488370401886 9 391 141
3.5408759750068772 3.5220605255743296 0.18138385648690125 9 391 178
3.5639153229192813 3.430145961697864 0.1634372333273899 9 391 208
3.4695896740274224 3.760228237550061 0.23550045363064753 9 392 94
3.5434469154650854 3.556124511757585 0.1721368805653145 9 392 168
3.6670403070180577 4.107152371236252 0.005846820960385468 9 393 28
3.519985106619858 3.7198288063840805 0.18169324800803222 9 393 115
3.559609953760617 3.685647858858747 0.14290296624590249 9 393 131
3.5401189503509336 3.5029962911075434 0.1743539883080416 9 393 184
3.560333145325365 3.4066297636363294 0.159460635946284 9 393 215
3.567791238433818 3.3951225414786466 0.15247429076144137 9 393 219
3.4707269286922227 3.75915185962417 0.22581334115729934 9 394 95
3.577316753638448 3.653577865868423 0.12196461014931415 9 394 143
3.5735773784841487 3.598083512450002 0.12928381223909158 9 394 159
3.534912345892473 3.5311149337495307 0.1734911116265907 9 394 175
3.558684842581833 3.4661350565746782 0.15290285459233743 9 394 197
3.487202496610019 3.752826805550442 0.20477818451895935 9 395 100
3.5019657331072054 3.7348573770096696 0.19055422637922947 9 395 108
3.5794499196382548 3.6414810883372155 0.11584225692065342 9 395 147
3.573442927551427 3.6221485040361863 0.12328640660512158 9 395 152
3.5503442619430334 3.5665810541563743 0.15074422687646827 9 395 166
3.651694353508369 4.096151192797068 0.007546074609672493 9 396 29
3.5467649343244054 3.6784202305615965 0.14294165220211008 9 396 132
3.5550277702188064 3.445880707507432 0.14880369335011268 9 396 203
3.515621135374089 3.7138636881464993 0.1687255878202638 9 397 117
3.5430206888918883 3.4890087794327025 0.1540839742332729 9 397 189
3.5584362590766943 3.410556205329043 0.14285094070385917 9 397 214
3.4559890829364646 3.7790508489311145 0.22273918762242162 9 398 87
3.555855151696605 3.663614483316037 0.12515603775035022 9 398 138
3.5624425457525977 3.626108743392696 0.12058473298060113 9 398 150
3.5680065372939804 3.3863851056554086 0.12970759597269454 9 398 222
3.565682249162809 3.4430284609738355 0.12396262881084219 9 399 205
3.5584179460363563 3.4177574560141935 0.13318871761231055 9 399 212
3.6322807229318723 4.061879101467111 0.01024924937617211 9 400 36
3.520654802937946 3.7117461774222695 0.15004170488181034 9 400 119
3.5530707274369013 3.6971228246439543 0.11672293429552383 9 400 128
3.561836391973758 3.657282092097085 0.10995844503410224 9 400 141
3.5592345584442313 3.6158248411182483 0.11530005109205121 9 400 153
3.566290220692883 3.5882372771291458 0.10957480805522879 9 400 162
3.5686434743290767 3.5789788980255683 0.10766886286305599 9 400 165
3.5725999764192666 3.377804506986158 0.11607743534028758 9 400 225
3.6158428166945686 4.108541914164716 0.01979337776434642 9 401 20
3.635485278295604 4.0904105849989785 0.0001182818783713735 9 401 29
3.454314292637747 3.7678724079734245 0.21227272864429403 9 401 91
3.4768337627441457 3.7484784460765135 0.1896285751401683 9 401 101
3.5425298761453403 3.696899299720931 0.11863058547705418 9 402 127
3.545392805504558 3.4816515784743114 0.12908915662776588 9 402 192
3.5536711539842143 3.571584220058655 0.10998402357714543 9 403 166
3.5514707901356934 3.5440034335928985 0.11406257678706422 9 403 174
3.6069640504858986 4.073610923270308 0.01672586363284223 9 404 29
3.493653149578143 3.730423016402239 0.15952440060751538 9 404 110
3.533352739389278 3.700584787035046 0.1189311858481279 9 404 125
3.5517032945564173 3.521084488346744 0.11058815336088079 9 404 181
3.538155102195317 3.603459762836394 0.11526380294379535 9 405 155
3.5406952744862714 3.524536124887028 0.11750708275334709 9 405 179
3.54138460895852 3.4948362653390563 0.11863733320381575 9 405 188
3.5395807501102263 3.4810010866181913 0.12144440613434693 9 405 192
3.5536406188181866 3.4550744311346264 0.1079875477024419 9 405 201
3.5508150234767473 3.4242220828956076 0.11296265875309963 9 405 210
3.55605326929624 3.4121606680457983 0.10810031683306143 9 405 214
3.5920177865106946 3.8304453357193022 0.0383113486469564 9 406 96
3.4952494207898392 3.73261785419637 0.14866700476510109 9 406 110
3.5235816903581467 3.7006134782983366 0.12018008643785194 9 406 124
3.5020236845423964 3.704132972025705 0.13862493960398514 9 407 120
3.5173929011750484 3.6693035895518875 0.11961632925341137 9 408 133
3.51901704011702 3.6601304436670983 0.11843619591585974 9 408 136
3.531392803408655 3.5525482632831817 0.1118255642184196 9 408 170
3.5314430675846857 3.489580033053222 0.11575109177978682 9 408 189
3.5353651492185225 3.381400413612784 0.11833872411650859 9 408 222
3.589994518020041 3.838789406385576 0.025347293437168794 9 409 94
3.5909311147245404 3.8287970772313518 0.024961512883671322 9 409 97
3.5877713965074225 3.8131182354211615 0.029388687660991897 9 409 101
3.5837540893596493 3.804024066596426 0.034331415231839246 9 409 103
3.5169502759633264 3.6763205164954047 0.11503531720189919 9 409 131
3.528872782965335 3.6484500192738123 0.10383829838184311 9 409 141
3.5278592307038124 3.6313935640880683 0.10601957819566721 9 409 146
3.5269974940078566 3.6077961608487192 0.10844977869789219 9 409 153
3.5883725976939935 4.074184880600266 0.007302531923792266 9 410 27
3.518105066642191 3.6019986148175915 0.10921789012191452 9 411 154
3.525421153262565 3.498784241474673 0.10776238689436113 9 411 186
3.5288523572762207 3.5801376245871466 0.0941599933281767 9 412 162
3.520414595580767 3.5504678147314777 0.10530613813441225 9 412 170
3.5225467821232934 3.458602916931548 0.10880212578219628 9 412 198
3.5119013578940073 3.693052888007344 0.10094346355720729 9 413 126
3.5303514339699578 3.3814656000445975 0.10044880062890282 9 413 222
3.517300213991689 3.7495038371041884 0.08672401453772105 9 414 110
3.5118485314920074 3.5318477552523193 0.10660956989136583 9 414 175
3.5135414438191193 3.5192469808154336 0.10554212162795462 9 414 179
3.5147679234718776 3.4965751438562047 0.10563137920181287 9 414 186
3.5209294632682475 3.442291275922616 0.10228271576359238 9 414 203
3.5181348358945903 3.4118503574568084 0.10730866435636832 9 414 212
3.5657106774064022 3.819982976195562 0.023886428519075853 9 415 97
3.5161966750496063 3.633223662457889 0.0906670584657614 9 415 145
3.562774162696132 4.020660579045556 0.00945075371248194 9 416 39
3.5540663234642222 3.9143670049743395 0.025919118655384876 9 416 68
3.5554659100250965 3.884155871055068 0.026292422902262302 9 416 77
3.5236431842042 3.6603575483086184 0.07596156411576405 9 416 138
3.5176385622290463 3.5579627574650527 0.08917576027941676 9 416 168
3.55852280360288 3.977068335516515 0.012075537983674778 9 417 51
3.558177243154619 3.8416904618445664 0.021117136325838226 9 417 90
3.521235366751882 3.750341128756907 0.0681580882742856 9 417 111
3.5136491765463234 3.6864977914831174 0.08070091145365144 9 417 129
3.516102271230153 3.6709671094352863 0.07895810963048433 9 417 134
3.5161675536947117 3.5479428286333867 0.086751607280672 9 417 171
3.5251504784109087 3.371287117078312 0.08802882311901516 9 417 225
3.554164403640743 4.058535378654843 0.006838166142992819 9 418 27
3.553507851794521 4.02679442901697 0.009604909271928808 9 418 36
3.5507091182913686 3.9072603111751745 0.020389232624839382 9 418 70
3.516773534916065 3.6285212720663855 0.07620321282554121 9 418 147
3.517079355733806 3.585332635054299 0.07862615110274662 9 418 160
3.5182962556768143 3.4428583542093527 0.08638638946552324 9 418 203
3.5438911669421427 3.945278509686283 0.020727676672352313 9 419 58
3.5426230985072635 3.790082905318001 0.03210002717588223 9 419 103
3.515436594803612 3.402662639303581 0.08745035105657784 9 419 215
3.5529943034726603 3.8067377868666323 0.014502469273811602 9 420 100
3.510988674209233 3.520941178691605 0.0801451832842488 9 420 179
3.5096064394436084 3.490682452715626 0.08364385259559448 9 420 188
3.534760692071612 3.9481887282316395 0.02110522088082689 9 421 56
3.53766170671668 3.823199001221398 0.02586179877066863 9 421 93
3.514722695833071 3.4660939984032835 0.07472526505086496 9 421 196
3.5090495531787713 3.4115363000391468 0.08464006973422222 9 421 212
3.513647268852649 3.3928328127247043 0.08064875874062905 9 421 218
3.536060712629293 3.9362848014054013 0.015537377943623865 9 422 60
3.5137619002884986 3.642915237993481 0.05968599437552102 9 422 143
3.529036792850911 3.775747145491962 0.02899001943009827 9 423 106
3.5099393206227982 3.4355379587687422 0.07262283146167148 9 423 205
3.5258924477335976 4.044710648785504 0.010370221926117917 9 424 27
3.5272381365564813 3.8676041998227753 0.02026328752606421 9 424 79
3.5272594041578036 3.836904195429082 0.022219932908770446 9 424 88
3.530692641615513 3.8081114110911627 0.020162517198458296 9 424 97
3.518796178837302 3.605895366975155 0.04677706889973421 9 424 155
3.5117237599516793 3.5830029167686677 0.0563195527509297 9 424 161
3.5134787555461218 3.5669530638143763 0.05535376858719476 9 424 166
3.5161589879143973 3.5110395404101795 0.05590502632766725 9 424 183
3.5257157272472353 3.977068359106895 0.010067906629967593 9 425 47
3.5243806668644764 3.945357817890142 0.013644021180509114 9 425 56
3.5246857007619647 3.7240112644846066 0.027595941899873244 9 425 121
3.5126265586124763 3.470243361585189 0.057787477278669286 9 425 195
3.517006285736955 4.009711149249304 0.01307052282979626 9 426 36
3.5172696204291563 3.8498411725176194 0.023110771971724287 9 426 83
3.5216843035232053 3.689341561134909 0.028427412005279873 9 426 131
3.5035242360778964 3.550913265053387 0.05822436088051042 9 426 170
3.5110566899707485 3.8944792575394955 0.022519933848203166 9 427 69
3.51194693027599 3.6484611512947307 0.03743146442867262 9 427 142
3.516112060705619 3.9873059637437174 0.005814153259541932 9 428 43
3.5086324655601677 3.924405826989463 0.018532676328847586 9 428 60
3.511130949284581 3.9056420585724356 0.016864082329743013 9 428 66
3.5092145367800516 3.8400732427298565 0.023330426765788115 9 428 85
3.5095602796250565 3.617785701083595 0.03734923059474449 9 428 151
3.5043468084857508 4.034531909012164 0.011493366153610296 9 429 27
3.512488257290585 3.802115928206954 0.017155296015890276 9 429 97
3.5181799760613535 3.5272990603341783 0.028409390628342912 9 429 179
3.5003960339215423 3.494622662060245 0.05113664699037912 9 429 187
3.5109601934981414 3.468225296938673 0.03577640990291231 9 430 196
3.5097935065289825 3.6803330767601 0.018477217804450774 9 431 133
3.507101531069398 3.648759940592023 0.02367202627423981 9 431 142
3.507661155519976 3.5951359192343832 0.0265114205590673 9 431 158
3.4879432111889237 3.92826440188378 0.022994987361588892 9 432 56
3.5028911123284945 3.873688140572271 0.009069258145174786 9 432 75
3.4962202828430318 3.748485032084205 0.025035787141276078 9 432 111
3.484201772682103 3.8096808063467784 0.030300262236632625 9 433 91
3.49240332456989 3.603487650437942 0.0341390317378365 9 433 154
3.4994956452395996 3.562819590908448 0.028472204995171335 9 433 167
3.50380901893203 3.5241514459789136 0.025935588884475447 9 433 179
3.5051220542639507 3.467579540018141 0.028088475233744248 9 433 196
3.4721016320967353 3.9929828425719522 0.0277439347086037 9 434 34
3.4997728842690554 3.6238365895256877 0.01930545372983783 9 434 149
3.4978135432343027 3.5024855939360178 0.02954528345423446 9 434 185
3.470041833791318 3.979243964367039 0.02627627770295815 9 435 38
3.4827978255088143 3.84064298395272 0.02028686515357503 9 435 82
3.481836462171585 3.823350979423123 0.022554051222978266 9 435 87
3.489809836202748 3.744029571000011 0.018331476744877895 9 435 112
3.5051646359054773 3.4347472047026404 0.020446598320090992 9 435 206
3.478563373693269 3.9494532736848695 0.013331661031048103 9 436 49
3.48152254678521 3.587418764860579 0.0335574967332497 9 436 158
3.4876060685157055 3.5598502914265957 0.028158294991727395 9 436 167
3.488970759116961 3.5303719537342877 0.028474024630507522 9 436 176
3.4877879356546706 3.493379817665084 0.03229996394275747 9 436 187
3.464285381903048 3.9639647893646317 0.02450066049038524 9 437 42
3.4748702987659223 3.917823760254377 0.014951088025756398 9 437 58
3.4758456895657925 3.905079625009551 0.014628505281388371 9 437 62
3.4707184710980177 3.891752135785634 0.021595967116412318 9 437 65
3.476763835229876 3.8655214738280246 0.016133920420487335 9 437 74
3.4669833534859613 3.9502328260211756 0.017381420142509985 9 438 47
3.4694449030034717 3.931898991495886 0.015652074045716446 9 438 53
3.4751651824391083 3.6854417161773556 0.025031190670834924 9 438 128
3.478232244039465 3.6702577089891983 0.022373021847150953 9 438 133
3.4681822332525707 3.825413483796436 0.019334923127283243 9 439 85
3.4728273539345023 3.625279242160875 0.02695118193138457 9 439 146
3.456294696322109 3.885302054382065 0.024814868898901832 9 440 65
3.469517055313913 3.7239013620462207 0.019589442721956285 9 440 116
3.469549123366961 3.664194649215992 0.023485548942258738 9 440 134
3.4769420010017935 3.4914881660745882 0.025998169303979024 9 440 187
3.447551513478066 3.956344017327864 0.025841582720456557 9 441 42
3.4650590146176237 3.8718928561781394 0.010346052391825289 9 441 71
3.467976519509176 3.5714497205907696 0.02666028673488441 9 441 162
3.4512051496273646 3.9301758351240514 0.018367325536353007 9 442 51
3.449339499640611 3.8069560798457416 0.028761135313227104 9 442 88
3.4610918031449662 3.7078085379738797 0.021125187615541163 9 442 120
3.475231154160412 3.534898832742959 0.015481442452211391 9 442 174
3.447938493758382 3.853061586493255 0.022608140416945144 9 443 74
3.459586176107794 3.6416906020927207 0.022487922608048105 9 443 140
3.4591461502785417 3.6316009110825855 0.02368834223258176 9 443 143
3.4480080183957624 3.7486264305983132 0.024631950272936187 9 444 106
3.448384736921355 3.732395576419917 0.025249627613025627 9 444 111
3.432035210954889 3.9298807694062905 0.02725772231424939 9 445 48
3.448715216038968 3.7037033208901766 0.021935816648710915 9 445 120
3.454897370228781 3.6111635544497065 0.020541232166920498 9 445 149
