3.918725719014152 3.84970655215277 1.235277843457027 9 7 23
3.920627446597047 3.835947073765139 1.2348941990609625 9 7 29
3.914474811321611 3.844920585827456 1.2198984519630038 9 14 26
3.91823247993311 3.8553526797234268 1.2144223945965322 9 16 23
3.9243848403902977 3.845927061700987 1.2130998867753258 9 16 28
3.932276180776662 3.8298084302244364 1.2018871081369933 9 20 37
3.933598177447185 3.8448257470363423 1.1944162583677975 9 23 32
3.932350358898413 3.8317614050383977 1.1946898052331383 9 23 37
3.9238461089045487 3.8640072026109276 1.1918442293105065 9 25 23
3.9271844007038585 3.8544653371814332 1.1862652691523075 9 27 28
3.934989661775924 3.84569825908961 1.1747264106064157 9 31 34
3.917156808985184 3.8530654134668656 1.1765664741831676 9 32 28
3.935695738514701 3.874655936038653 1.1623229688392658 9 36 24
3.9184533504188996 3.849508861729227 1.1641086536067329 9 37 31
3.898006468764745 3.8653681491050054 1.1399926522155732 9 49 24
3.8879950143813145 3.8568913580975703 1.1377645441991566 9 51 26
3.6451860393447624 2.964618098750975 1.042552701746669 9 123 390
3.6217331140809508 2.9847995964146663 1.035544187361502 9 130 382
3.616120244165699 2.975194694167362 1.0164171867596363 9 139 386
4.002718962677265 4.001176917864986 0.8503507993776931 9 140 20
3.9951867348455075 3.9919173431883643 0.8410100689193113 9 144 23
3.9953046853452845 3.9841052954077245 0.8377676506677815 9 145 26
3.640727859290969 2.947676948581047 0.9908947096310312 9 145 396
3.647665730595177 2.948172979249282 0.9777961649718248 9 149 395
3.962631994174851 3.9840774573156814 0.8209700191139321 9 155 23
3.906884208414941 3.947753421232723 0.8282708286229025 9 161 27
3.6357921136092948 2.9519321383850863 0.9452073431736596 9 164 393
3.9064420895151315 3.9678196620861534 0.8161806086173232 9 165 21
3.8907661771224697 3.9349465409635296 0.8205430632706034 9 166 30
3.898538188166965 3.9511817841682157 0.8137313320573825 9 167 26
3.6308855077411533 2.9512060511490845 0.9269127747952781 9 172 393
3.8829203375819494 3.934717196113464 0.7996005377736817 9 174 31
3.9011723988019407 3.936912496207582 0.7872538036919887 9 175 34
3.8829840568770466 3.9644686005966028 0.7934613931273525 9 176 21
3.6219839600015957 2.942421860454503 0.9209296686875412 9 176 397
3.8846530402083888 3.941022457876058 0.7893546092725168 9 177 30
3.8974167853886925 3.940308556678457 0.7796638434707241 9 178 33
3.658742151185237 2.9089605201692166 0.893999818448618 9 179 408
3.88334079788624 3.9691109278961965 0.777548113915839 9 181 21
3.892312789897577 3.944717475821013 0.7663770220309999 9 183 32
3.880522721177067 3.9465755798273605 0.762995832557843 9 186 30
3.8943068654706043 3.9396055749515435 0.7459444232897026 9 189 36
3.6825472052280763 2.8817590352466924 0.8509246050123069 9 190 416
3.6911625210823935 2.8673365333962733 0.8462058595417752 9 190 421
3.8906998383379507 3.968019476842351 0.7415419266416897 9 191 26
3.8903540453810956 3.9343603858760976 0.7382860677737804 9 192 38
3.8863737436035555 3.9502525678283833 0.7372810014568554 9 193 32
3.8860060400820506 3.96041766006453 0.7310103961344554 9 195 29
3.892623259522882 3.979392213516008 0.7241919488271028 9 196 24
3.8910569423481345 3.9610669011004074 0.7150513934432698 9 199 31
3.8864308188113723 3.9910834988818618 0.7145068629776183 9 200 20
3.8961510390632297 3.9415902533888665 0.7087658287995201 9 200 39
3.8813007021552526 3.9784968928030433 0.7107054058281994 9 202 24
3.8952197568600218 3.9670068649296377 0.6994216645125407 9 203 31
3.884313269001489 3.984954701382487 0.7023925784719594 9 204 23
3.8746648442048226 3.98985854127893 0.6912857978567383 9 209 21
3.890226637087539 3.9666457367904977 0.6719143346715201 9 212 33
3.882974273643918 3.9372767391665873 0.6726048601885898 9 213 42
3.88671443084018 3.97411176559473 0.6500692829322837 9 219 32
3.880779464245938 3.966761200558305 0.6467241234720843 9 221 34
3.886671934186303 3.9562458820717348 0.6395941523501204 9 222 39
3.893732950279749 3.967008295408184 0.6318519068892663 9 223 37
3.5707614068920197 2.972186095494115 0.8208265086048516 9 224 384
3.890538789089904 3.9659951431665745 0.6197859668242743 9 227 38
3.6942632261040016 2.977316601660296 0.7354766503467439 9 227 375
3.689098295631812 2.972723361316021 0.738667203583868 9 227 377
3.688902507764782 2.8517382909571607 0.7379637644680992 9 227 423
3.6838932136134384 2.8945782163502214 0.7383122204524118 9 228 407
3.8819348530579116 3.9400085200642545 0.6038251133050797 9 233 47
3.8502388770609235 2.6659085733238026 0.611549046869426 9 234 472
3.6815957295412556 2.8373546483354284 0.7145853884110879 9 236 428
3.682516495133358 2.838468153497103 0.7014341574176767 9 240 427
3.6847970330911823 2.8369285570433314 0.6904119207937536 9 243 427
3.8863803752691988 3.948441950280164 0.5540828821547676 9 246 49
3.887200898318589 3.9566556296671873 0.5351477496063306 9 251 48
3.881304006146702 3.9562523717725213 0.5280464220988152 9 254 48
3.8779064368784675 3.9612522412884994 0.5155126596136705 9 258 47
3.8940949725307865 3.9486579641398127 0.5040649365028522 9 258 54
3.8780984222392054 3.9416033375454287 0.4963678740641193 9 263 55
3.876736152794579 3.963343669886398 0.49372679004682984 9 264 48
3.6749537798202887 2.8185638925054364 0.6288261743273093 9 264 432
3.8771333383129867 3.9582056147438824 0.47813519342767474 9 268 51
3.675671754347479 2.830596074907657 0.6150771967000547 9 268 427
3.6666383258373187 2.83379704708015 0.6049464922820735 9 273 426
3.6667961148496038 2.8158840275405783 0.5911470072429025 9 277 432
3.65639487412082 2.8193877966472516 0.5299485248038867 9 297 429
3.6603403444124996 2.8176090070576087 0.5196384273877332 9 299 429
3.5586901839672644 3.556612211716143 0.4549515597588212 9 344 159
3.5535455622596333 3.510445970428776 0.452022184643748 9 346 176
3.5394081245200555 3.765033196777759 0.3294920830606558 9 383 89
3.5498261515400227 3.7596761169278534 0.3181886681045458 9 383 93
3.554654580519648 3.77028263506061 0.2889268552497255 9 389 92
3.5453286979880327 3.7512040189436364 0.29890544566808974 9 389 97
3.5392713732141026 3.7385024372091147 0.29733207326855826 9 391 101
3.556723494517315 2.8311092788479475 0.26082266169364 9 392 421
3.5396952300809534 3.752419709306765 0.2849021798725484 9 394 97
3.5310271424851347 3.737463043124187 0.2903234357753506 9 395 101
3.552576629965718 3.7185654900583134 0.2617569088124885 9 396 112
3.5338902784462247 3.7331144069399067 0.2748148307744991 9 398 104
3.530755662399341 3.7630188904460353 0.2747165354111485 9 399 93
3.621285174033242 3.3334963969813725 0.16554578887109273 9 399 251
3.541694806315994 3.7304298590703895 0.2576695862634111 9 400 107
3.630929087133075 3.270494128247769 0.14916241683709197 9 400 272
3.62688922040865 3.251761021334361 0.14898928662178101 9 401 278
3.6041769498252267 3.2406194607214975 0.1747813450930673 9 401 281
3.6186694512734934 3.2912808842205417 0.15000963178512272 9 403 265
3.588690303936815 3.221788529860201 0.17905634389983582 9 404 287
3.5160484624014585 3.762857414178807 0.26697335486459184 9 405 92
3.539773395580057 3.7165596748543894 0.23880056892609036 9 405 113
3.6130538328391646 3.3216630404202725 0.14795752953819052 9 405 255
3.6027239699321134 3.3325384616928586 0.15561865375848116 9 406 251
3.6152614064962787 3.266947895052523 0.14005545870552538 9 406 273
3.629469193274934 3.178083078018138 0.12219725804920567 9 406 302
3.515155447919706 3.7724705779298406 0.25992226439528854 9 407 89
3.5174042757948376 3.7430714416478432 0.2568517470676839 9 407 100
3.601958890333815 3.390425533202064 0.15291893965403114 9 407 232
3.5083172510085303 3.748160811758483 0.25929071121746494 9 409 97
3.5222237849171862 3.730549384752195 0.24270774196094114 9 409 106
3.5582178382021024 3.7002414118266245 0.20002183392334372 9 409 123
3.566915636559768 3.5224274712216617 0.18707833024130682 9 409 185
3.593874415714118 3.3894688861006967 0.15340750728448826 9 409 232
3.603858876452159 3.2938646034109755 0.14022235872247002 9 409 264
3.6037657206265195 3.352201332963817 0.13671328370592195 9 410 245
3.6038216287472316 3.269596383670808 0.13536896648020713 9 410 272
3.5986145980767485 3.2385274268476603 0.14101536569785367 9 410 282
3.593554378057021 3.2168336133884714 0.1466341132674902 9 410 289
3.6118752295603667 3.180925944422694 0.12451963930512044 9 410 301
3.580693700525786 3.4054205360351193 0.1602470080551972 9 411 226
3.603629814519041 3.321878223464391 0.13187201175889918 9 411 255
3.5109966646052353 3.7410825704047377 0.24357647406672722 9 412 101
3.545447170767291 3.7079521358118357 0.20225799365149566 9 412 119
3.5737010498832573 3.684371028196673 0.16400622162101697 9 413 132
3.5513402109006567 3.5428442877898423 0.18835923459917914 9 413 177
3.5968491711957444 3.297198192935328 0.1258939308742857 9 414 263
3.5043766915007466 3.7428383643941623 0.23895209975230935 9 415 100
3.6020167698182934 3.2642451063287496 0.1146352253486731 9 415 274
3.5884611767765877 3.211037037772552 0.13000662285446118 9 415 291
3.5536505387828505 3.5718417621252554 0.1729400732330304 9 416 168
3.594252656938953 3.3463007101906372 0.12065584379698358 9 416 247
3.5904216560086946 3.3151419374819637 0.12475857807512147 9 416 257
3.5881684668307705 3.2357097292774495 0.12164868500291903 9 417 283
3.53908534605872 3.52981210514978 0.1810422168240584 9 418 181
3.556180212392107 3.510199413152704 0.15119467924655838 9 420 190
3.56732134509445 3.4149248356130757 0.13612264319456457 9 420 223
3.5818082053329183 3.3210263168551513 0.11700665191966797 9 420 255
3.539359411861549 3.5579074721331008 0.16800778749142298 9 421 172
3.580232161501924 3.3697575475352384 0.11513746481414744 9 421 239
3.582268920050007 3.287798169275043 0.11133115228941226 9 421 266
3.585114706632008 3.2575306092623424 0.1073728982102029 9 421 276
3.5645908722057325 3.6633611029648288 0.13444542771919243 9 422 140
3.5756831740764072 3.3577331761818163 0.10675741965383612 9 424 243
3.5739220082055727 3.287439072877942 0.10777775537939904 9 424 266
3.5696080242954933 3.3296334652897315 0.10919592043830173 9 425 252
3.558072614351337 3.4151936585304736 0.12030103651302149 9 426 223
3.561047535887473 3.5426684931480845 0.11415172724095979 9 427 181
3.5461503757203294 3.662524721162016 0.13014106827498817 9 428 139
3.551700842339809 3.5561456235630877 0.11234545745457836 9 430 176
3.5497224997090724 3.387869009855057 0.11201761478658079 9 430 232
3.5507476548560324 3.285888277910756 0.10902768845168787 9 430 266
3.460085683158507 3.7867763358348316 0.2269837670338095 9 431 80
3.542021862082335 3.377626550239585 0.11696329051990917 9 431 235
3.543053430899226 3.359918283761312 0.11536761289135322 9 431 241
3.5430511994111447 3.2761566603801926 0.11396609074167818 9 431 269
3.5394256001145568 3.650679231811394 0.12027697152656924 9 432 143
3.5414936549925464 3.3453236722943474 0.10795189422512586 9 433 246
3.5357367676534217 3.623898720489438 0.11540623191638844 9 434 152
3.5350372433857458 3.579203506246628 0.11553760783930733 9 434 167
3.5382583301702573 3.327113445102158 0.10716841861976079 9 434 252
3.5321687597002294 3.3777369143394242 0.10204532983723502 9 437 235
3.5227195498736927 3.646978583291446 0.10053022259739808 9 441 144
3.5214799790115743 3.5709294237463403 0.09160700940015998 9 443 170
3.52581041650146 3.518983191945911 0.08503015784565515 9 443 188
3.529591995352847 3.61956140643409 0.07718962394475737 9 444 155
3.5240326987240636 3.492656147145573 0.07759697716011882 9 445 197
3.52455314500686 3.4030413567490467 0.07532824072585642 9 445 227
3.573523664317336 4.0609017169558435 0.017628904258689904 9 446 19
3.5614778789526933 4.013052163707529 0.027885257929878726 9 447 32
3.516650863278203 3.4765144576208473 0.07773926107201934 9 447 202
3.566080963723087 4.048545467526252 0.01757824464956559 9 448 22
3.5223503220807935 3.6193591347667105 0.06804729691242395 9 448 155
3.5196557125438 3.528738698990432 0.07001045409013784 9 448 185
3.5186689550398227 3.46569108208287 0.07019577457689197 9 448 206
3.521230960972006 3.571782563279856 0.06399109279200643 9 449 171
3.519158683259741 3.4393770119642104 0.06438028214478964 9 449 215
3.517859771365439 3.3971003152878043 0.06535443770901894 9 449 229
3.560471063861991 4.057409714707215 0.010664762979682996 9 451 19
3.541234831555805 3.9243146723255116 0.0340797772611805 9 451 58
3.518620378208645 3.4941897126293666 0.05666242566167168 9 451 197
3.519047134251214 3.4402739713289976 0.055115456443605826 9 451 215
3.5417503367366154 3.9833884688826315 0.029658140382595066 9 452 39
3.542041290059096 3.8664753132549814 0.022325481779726264 9 453 78
3.535669791354679 4.011563545446531 0.028775539816744633 9 454 29
3.534122396886708 3.9531010015417327 0.029804384749153368 9 454 48
3.5143912569166433 3.581410032291691 0.04975239078693061 9 454 168
3.5077511090285176 3.4804203815557946 0.05690576142514803 9 454 201
3.5132565634500548 3.42809289897133 0.048488941542845554 9 454 219
3.51479836652984 3.576923082470359 0.039601553816100754 9 456 170
3.5105610935653644 3.4673401313932577 0.04336351640338476 9 456 206
3.5298008756009676 4.038071987920264 0.022814382156990165 9 457 20
3.5228475312082113 3.9156092613593554 0.030065502024984703 9 457 59
3.5194009581210786 3.856298644734971 0.03368536482438289 9 457 78
3.51529456138332 3.553702092733457 0.03371347872900765 9 457 178
3.5034017061048246 3.477671522870034 0.04858060368621775 9 457 202
3.531804319786006 4.031977147293023 0.01512279802066363 9 458 23
3.5185257080429198 3.946704874126529 0.03176737075313785 9 458 48
3.520214608140617 3.8939500472345774 0.02847103538937823 9 458 66
3.5212453005165187 3.9859410677461633 0.02395264267100461 9 459 36
3.4994111644003176 3.5132837274950486 0.04522037218103003 9 459 190
3.523227394008101 4.018832210678525 0.01700501125954701 9 460 26
3.500475494110562 3.52618026148046 0.03923046337999958 9 460 186
3.51731132164376 4.027481774390496 0.02052015129144369 9 461 22
3.508177686755089 3.963677100801636 0.031980848595186906 9 461 41
3.5049138433820444 3.875087321709769 0.034842759447540006 9 461 70
3.505199814535868 3.5734957511302423 0.02879191770208278 9 461 171
3.4978117260638735 3.9110724635233898 0.035834566969197956 9 463 57
3.4993019645691 3.846847329163007 0.0325431905413367 9 463 79
3.4942936361522774 3.4869836653023674 0.032730872836414626 9 463 199
3.489448974534308 3.984024032340602 0.03937694833862859 9 465 31
3.48991547511777 3.934353106207403 0.03777709880987268 9 465 48
3.48933140704543 3.8572984934234307 0.03713071765513565 9 465 74
3.485131814301579 3.5889708512065797 0.03791943278354615 9 465 164
3.489951970042691 3.4598158368131315 0.028696731404274756 9 465 208
3.4889304188666195 3.8965149897815237 0.03366485352528681 9 466 61
3.483512253950358 3.828075103488048 0.03998665506933152 9 466 83
3.484546789545843 3.497392837239806 0.03221486513248273 9 466 195
3.487675755780004 3.9068359851018677 0.026047471419860635 9 468 58
3.4858630495495038 3.8701273716196893 0.02790988049943066 9 468 70
3.4755007310137698 3.826122230958695 0.03698339295999742 9 469 83
3.4703353610184453 3.5355848997205106 0.03871614038327964 9 469 181
3.4741293775830138 3.501530942844897 0.032665303844850335 9 469 193
3.4751859892616284 3.490046960860184 0.03094156010337379 9 469 197
3.478686612989525 3.8969224502190256 0.029034143867360918 9 470 60
3.475851546852735 3.5974746698492934 0.027273859271241818 9 470 161
3.47275834626944 3.9624429462677115 0.02920179885393681 9 472 37
3.458377465270975 3.829855827575061 0.04725236303732072 9 472 79
3.470184171104342 3.640719906837065 0.026615357924000715 9 472 146
3.460719548549796 4.003621848037055 0.04254111698647289 9 473 20
3.4675529709291797 3.95512064239208 0.02696051352672657 9 474 39
3.4579883051551383 3.5399534798257535 0.03261045869105206 9 474 179
3.453872119374739 3.5121028929680964 0.03800790083934258 9 474 188
3.4587120976151873 3.910127849064593 0.029291315590661116 9 476 53
3.4526992907350462 3.68222207408001 0.03351640837692971 9 476 130
3.454767680436312 3.6190332764955073 0.029258100096309025 9 476 152
3.451447829408443 3.978256901478096 0.03643944452326675 9 477 28
