0.640223829637778 7.045053876259136 0.9005425386183066 9 6 68
0.6193522611968248 6.9011275772185545 0.9528380114151145 9 7 24
0.627067487323696 6.90863147970003 0.9505975368254014 9 7 29
0.6221754227978891 6.926043580055639 0.9432589239206828 9 7 32
0.6280835960824644 6.951520843968076 0.9337476877343239 9 7 41
0.6239548038386099 6.9924575693841895 0.917186340159075 9 7 50
0.7088682307485784 7.2403559964267385 0.8065770478649958 9 14 131
0.6453169669074287 7.112919695452215 0.8495752256048634 9 15 87
0.6573837841032378 7.205742064794695 0.8127896147344225 9 15 109
0.6455112948881284 7.13820573543358 0.8307549370443892 9 18 93
0.6506742881867025 7.173200009061266 0.8109465155849677 9 20 102
0.6698474231586152 7.167551293687746 0.8035188387554675 9 24 108
0.6625552601273897 7.111513995641755 0.812333851320274 9 29 96
0.6829349985699995 7.067098514631816 0.7968829761540779 9 42 97
0.6644294892786644 7.117318137919238 0.65002866455103 9 81 111
0.6670412836141977 7.0738318224889465 0.6671160063061623 9 83 104
0.6670979028304908 7.084002403900756 0.6616574073306227 9 83 106
0.6750434679902303 7.124241257925943 0.6409857050975254 9 83 116
0.672795482477706 7.123869374029327 0.6309286686555133 9 86 116
0.6741720327145914 7.143915899370492 0.6065911285425172 9 90 121
0.6656840070783407 7.089640829009849 0.6288720343169977 9 92 109
0.674374702513367 7.156549816560924 0.5892618588311898 9 93 124
0.6807193743601528 7.189205118228609 0.5467934861578385 9 100 133
0.6716735287561012 7.105046590996408 0.5904568220533201 9 101 116
0.674307668939721 7.117246495308975 0.5837709734592134 9 101 119
0.671867148398862 7.143850830474644 0.5681544114391214 9 101 123
0.6794161736403043 7.164619083976155 0.5535905438706038 9 102 129
0.6794933895460501 7.2181374549003845 0.5189948952840804 9 103 138
0.6864923445062859 7.219075899602167 0.5044585938474282 9 107 141
0.6853788576390397 7.253749315903194 0.48391106988058796 9 107 146
0.6664904841860614 7.08999610578939 0.5673954795701575 9 110 114
0.6696336336014109 7.101254734555331 0.5611050839113669 9 110 117
0.6728997861401323 7.11253584280739 0.5548173322982677 9 110 120
0.6724159748158938 7.130259400131512 0.5442073721334151 9 110 123
0.6847010924458994 7.217989493497078 0.49360103816321055 9 110 141
0.6742435429341836 7.165224503998552 0.5163022093380996 9 112 130
0.6860367975729919 7.230724040366389 0.47475443233614034 9 113 144
0.6841310833360877 7.16955560011278 0.5076133841196806 9 114 134
0.6752535271576681 7.153272243314143 0.5126013171703829 9 115 129
0.6771681572797285 7.198727593688805 0.48529768133014284 9 115 137
0.6878555871057701 7.251085402909153 0.4549699567409051 9 115 148
0.6705036423966046 7.1421902229617285 0.51502771564338 9 116 126
0.6695523084716344 7.106673848538348 0.5293147612738791 9 118 120
0.6841754388360924 7.188936690440179 0.46559620793841106 9 122 139
0.6971483794179261 7.230710773378478 0.44136091916307674 9 122 149
0.6706400891085905 7.107555681725346 0.5070732691136874 9 124 122
0.674410457923345 7.153659680942891 0.4786915439418673 9 124 131
0.7166452475860322 7.198899172039049 0.45608301116077943 9 124 150
0.683407621988563 7.192246741710208 0.451864816408476 9 125 140
0.6735537398381907 7.135940380394854 0.4708688833936412 9 129 129
0.6845313733153077 7.1893439251170586 0.4343815011701082 9 130 141
0.756602035941285 7.110142826366885 0.491399205383366 9 131 149
0.6654775774718764 7.091678357402744 0.4831681240702841 9 133 120
0.7294185879872752 7.11883192973679 0.4745205533872854 9 133 143
0.7574255809895075 7.097039185796618 0.48512346839465637 9 135 148
0.6835117308638848 7.13744010161235 0.4406357463713846 9 137 134
0.6790278548841822 7.1137584058497545 0.45173965041090525 9 138 129
0.7110090438108355 7.088217657248187 0.4693667010479645 9 139 134
0.6703437735425718 7.106172754870048 0.4440098187302588 9 141 126
0.6678920268298674 7.091520203845296 0.4496085238825622 9 142 123
0.6773492195329928 7.090397659071725 0.44405767384442796 9 144 126
0.6739654822258931 7.075925502018207 0.4456865235999721 9 146 123
0.9716749045984058 6.732366200758955 0.47856875384397823 9 222 171
0.9889170356052708 6.723829859925474 0.4785660999813819 9 225 176
1.0082026046570158 6.728804566867284 0.47043606297698193 9 227 184
0.8801119888445486 6.840471505303185 0.32925187481748885 9 231 163
1.1042964268411117 7.116718732345825 0.10853597120759684 9 233 262
1.1166938467931953 7.1248926937348145 0.10334397516766924 9 233 266
0.9495941094648293 6.834175541397602 0.3359343955934735 9 234 184
0.893275522905538 6.835100401488098 0.3202149132372796 9 235 167
0.8831794320608432 6.839971587257515 0.309588907038288 9 236 165
1.1313114471120764 7.097577232771698 0.11194961910219314 9 237 268
0.8967256149942644 6.836684775947508 0.30691277867296396 9 238 169
0.9294275283292333 6.8367629554976865 0.31314726940782855 9 238 179
0.9467930760539235 6.833397027206512 0.3155090050605951 9 239 184
1.1869025136678066 7.199383866039031 0.016935667117818243 9 239 290
1.2189450457206505 7.211804964320637 0.011425581831115306 9 239 299
1.1584979117036622 7.144752798912709 0.0578832464610608 9 240 279
0.9336605674124479 6.831144766597114 0.3067483849325279 9 241 180
1.2073083002152962 7.194122988501705 0.015441286252542819 9 241 295
1.0997993754783755 7.076433104673579 0.10133309498233145 9 242 258
1.140754671234304 7.0867979343402965 0.09945724418157376 9 242 270
1.200670893518444 7.172325414321163 0.024505862527683275 9 243 292
0.8850147255965031 6.831889154262782 0.28385583512969004 9 244 166
1.1073345757037405 7.062645121281079 0.1061841413175526 9 244 259
1.1515429044989922 7.098666282937294 0.07532123501675714 9 245 274
0.8703733692738302 6.831428952835033 0.2728570041613778 9 246 162
1.0732822289104054 7.052944389665331 0.09900090527491212 9 246 249
1.1084304935650282 7.045294136369224 0.10846315713144561 9 247 258
1.0762556147042133 7.031931095243054 0.11016733525673295 9 248 248
1.1300942031348338 7.03306591611925 0.11977377482094087 9 248 263
1.1638269632292975 7.1195967159924205 0.037190250227553845 9 249 279
0.9146452119892323 6.824340694438524 0.27135952631315674 9 250 175
0.9307445446036855 6.825111867817231 0.273826725729335 9 250 180
1.086396463078901 7.0216819952498515 0.11245029963841535 9 250 250
1.1387862853936122 7.038401728385745 0.10656063019496353 9 250 266
1.1751856517124974 7.133465999224111 0.020734875364779137 9 250 283
1.1877930020593073 7.1285686655123754 0.028055176284550898 9 250 286
1.2134380651840435 7.131361025907753 0.02528194964433661 9 251 293
1.0911112089859198 7.004212274289273 0.11114915803313852 9 254 250
1.1435349461036761 7.031601513468648 0.09457140786758567 9 254 267
1.1595540092208667 7.104502119153727 0.025416144578496613 9 254 277
1.1721327397482628 7.113931599415847 0.01860036898577455 9 254 281
1.2057678823772124 7.115050535614515 0.02430547869891253 9 254 290
1.1325704931755185 6.811848252760021 0.30640834152018104 9 255 242
1.2144627394886467 7.10933889127384 0.021390171097079413 9 256 292
1.108100418156163 6.993634280168671 0.11054775537871508 9 257 254
1.1450922017260212 7.03553943310685 0.07105413896112389 9 258 268
1.2039365672325557 7.090216328092194 0.028066130546702706 9 258 288
1.114423525942673 6.983584879542784 0.11222059837379184 9 259 255
1.1695372782929525 7.078572774167951 0.027574868664311136 9 259 278
1.1513260195013637 7.062399606404122 0.02988974641055453 9 261 272
1.129585170094018 6.967160949526512 0.11745604383187147 9 262 258
1.1401652293213445 6.989511554704268 0.09683137116853935 9 262 263
1.1435856953707644 7.013377247781047 0.07317226055086312 9 262 266
1.1158724676078038 6.965097405258542 0.11185188407806823 9 263 254
1.1493649522737213 7.042205061181292 0.03982158132806091 9 263 270
1.1351211664006706 6.979624269028008 0.08616972221496111 9 266 261
1.175785963187875 7.051370195179137 0.02043789389449424 9 266 278
1.108452633239751 6.952106503499879 0.1041628885438719 9 267 251
1.1580718639443885 7.019964888555622 0.028717184029610987 9 270 271
1.189806700604802 7.024348215164133 0.030873912726333108 9 270 280
1.140044827646066 6.949014166752306 0.09444080910534391 9 271 260
1.145338239494726 6.9888031664656225 0.053653135972342 9 271 265
1.1546260306353502 7.005342058801245 0.03307304599136307 9 272 269
1.1583359781732152 6.9913949229822085 0.03838526092016159 9 274 269
0.9645349599931115 6.076700629724858 0.48069046386487657 9 452 40
