3.6625297682882665 3.4669909742429903 1.0747007947209002 9 285 189
3.8730422570634095 2.5018699375921947 0.8342753859366763 9 285 521
3.7881334528839163 3.696251577766423 1.040851025697556 9 286 86
3.7786286311356623 3.622195796627139 1.0352995611457048 9 286 120
3.6664512805116107 3.4860241758346038 1.0729655100854818 9 286 180
3.6602840772507674 3.4252111626581008 1.06757873232401 9 286 209
3.656010738545202 3.3719124921043657 1.062285402773051 9 286 234
3.7224896504931504 3.2904218433236645 1.017282101940925 9 286 267
3.88913312395378 2.5487684241503525 0.8293211041555764 9 286 504
3.876318995536253 2.5197315303091745 0.8317383290474113 9 286 515
3.6657537416233827 3.399573481827526 1.0587670092081847 9 287 221
3.7894281453775855 3.6760978776364093 1.0322218253480284 9 288 96
3.6582009465859238 3.561609874767349 1.080620725108398 9 289 143
3.670954479953174 3.449046152932051 1.0581689059829114 9 289 198
3.6628541035418216 3.3806468723277314 1.0526400763802783 9 289 230
3.5741914522424616 2.7641653626536042 1.010822525690843 9 289 501
3.869391023734607 2.4886947631813836 0.8207356978036735 9 289 525
3.658704827757482 3.5778766385301197 1.0803022227041494 9 290 135
3.572698062832556 2.780234363297283 1.0086411422513186 9 291 495
3.8866399714312023 2.537920093433664 0.8120455631961419 9 291 507
3.671295046416306 3.5188501954646774 1.0605966728761895 9 292 165
3.6708980268061535 3.5064223020569742 1.05902433056278 9 292 171
3.6754725284362615 3.492015238488131 1.0545918530948701 9 292 178
3.720686661475009 3.2843384011230277 1.001441727138586 9 292 270
3.671172844250679 3.5579917559517806 1.063850104592825 9 293 146
3.886742210545151 2.530045785795245 0.8040170089677273 9 293 509
3.873260798809352 2.48739941094169 0.8049092197677025 9 293 524
3.6719222950447916 3.477730546270822 1.0494741263224903 9 294 185
3.671679024861187 3.4587057618575088 1.046858668071275 9 294 194
3.668740681540287 3.407316449187708 1.0409861195337942 9 294 218
3.5721145891345563 2.763872310365471 0.9987285395749068 9 294 501
3.7455613070495577 3.6398918001130385 1.031830892770485 9 295 111
3.666602327588094 3.4312679149788132 1.0430799717805033 9 295 207
3.724127570654731 3.2913830219193576 0.9926492343732213 9 295 267
3.693852418521983 3.4022840008886663 1.0220302007099118 9 296 220
3.8794923945741537 2.5232254206256606 0.7965266609225302 9 296 512
3.8781478286388085 2.499859006053647 0.7938413071894215 9 296 519
3.6771051245959123 3.541282000552873 1.0485971047666829 9 297 155
3.6761318212043657 3.512195734740224 1.0448715906046426 9 297 169
3.7015353515841602 3.450831844947757 1.0224839241504093 9 297 198
3.692051668683026 3.431220688286401 1.0246427612196245 9 297 207
3.6873297032539436 3.387260744813702 1.020732278307708 9 297 227
3.5766719538333795 2.75721476562948 0.9874281852817695 9 297 502
3.8789148816148153 2.543856741092771 0.7964013243520214 9 297 506
3.7317213562198663 3.613848664264913 1.027748891246868 9 298 123
3.6903320940139377 3.5900550256098533 1.0462562743411028 9 298 132
3.677166731998155 3.566502583195883 1.0473631449985699 9 299 143
3.698319444298786 3.524504188814241 1.029910485345258 9 299 164
3.8770508832994826 2.488677084226476 0.7824221953913362 9 299 522
3.7069777812795994 3.5444599682118674 1.0257012569919906 9 300 155
3.7289060910774205 3.3294762697760047 0.9822611615164686 9 300 251
3.584391371720055 2.788437107852782 0.9799006804010587 9 300 488
3.7320988447445673 3.5938399693723966 1.016972932299118 9 301 133
3.718787236786084 3.404515574788046 0.9961160802392062 9 301 219
3.7339426503261977 3.615557656117251 1.0166458831219556 9 302 123
3.709892762348225 3.581156041569235 1.024522539369403 9 302 138
3.69945627211668 3.561283611867782 1.0272063456898666 9 302 147
3.719394122405402 3.4609166192279393 1.0015333972640692 9 302 194
3.7179547688421355 3.4408473971677465 0.9993297989654295 9 302 203
3.7210790029802023 3.388632430593157 0.9898875199028734 9 302 226
3.734677905947491 3.352851705051379 0.9772301582515397 9 302 241
3.873566407668396 2.4896596781039593 0.7740280503809337 9 302 522
3.7316959073036204 3.628201654847148 1.0171956960476791 9 303 117
3.715044333620181 3.4186647718123098 0.9949864581869765 9 303 213
3.731805050502606 3.313005152564 0.9701483358630875 9 303 258
3.867560754045549 2.5281538043842793 0.7795459825766056 9 303 512
3.743619615900491 3.6576195494475616 1.0125616072505705 9 304 104
3.715389610429644 3.520522896960736 1.0074148948051018 9 304 167
3.72926089188904 3.367694273538288 0.9769970815656297 9 304 235
3.722139841233326 3.292849121364511 0.9696745046087552 9 304 267
3.8689824348921498 2.4849273882036704 0.7688565978780354 9 304 524
3.729987365483078 3.5928336019987492 1.0077233807013706 9 305 134
3.8518783095568665 2.565240315365573 0.7867855612299774 9 305 504
3.855157513524909 2.546021192363721 0.7821071174901122 9 305 509
3.725651249551298 3.554220072788267 1.0017133874627442 9 306 152
3.714163702993068 3.5014840897964814 1.0000678617503644 9 306 176
3.5724626968753164 2.778229126911615 0.9688048559342584 9 306 494
3.7241404980587802 3.6698757656760512 1.0174575093173235 9 307 97
3.627969002448391 2.8056012837346667 0.9396889702572061 9 307 471
3.5934920008150164 2.7939481163777993 0.9569197058264061 9 307 483
3.738616680671284 3.641562200371649 1.0026300019709136 9 308 112
3.718000221553245 3.466871510235631 0.9875085516621442 9 308 192
3.719567947911104 3.444510206284383 0.9832461545402561 9 308 202
3.7234440578543593 3.5742877590087514 0.9982302639549784 9 309 143
3.7241589430323816 3.5485650228085324 0.9939133416460363 9 309 155
3.72083756480155 3.385451385187115 0.9709005050773729 9 309 228
3.7333754667953185 3.342381073683673 0.9573745350660894 9 309 246
3.715552791203546 3.5287864862567315 0.9930893302996295 9 310 164
3.7250986639791734 3.359770687256942 0.961916787016763 9 310 239
3.7299868832245946 3.618230038622836 0.9961471869380348 9 311 123
3.6297341200393447 2.8034321915587594 0.9271857370785036 9 311 471
3.5877347147995304 2.793618386303541 0.9491872421142644 9 311 484
3.8622396409916284 2.517656668853703 0.7531796066589976 9 311 515
3.7290502898190687 3.6644494749000756 1.0012149482746477 9 312 101
3.729540934639739 3.5844819540644286 0.9886192896379066 9 312 139
3.7135260582144 3.503131822549694 0.9850856271245457 9 312 176
3.7225648491286085 3.4250274044733846 0.9679735128102191 9 312 211
3.7127319294432644 3.4002592365327358 0.9696831276189087 9 312 222
3.7297578194554073 3.3217922629570658 0.948026939515685 9 312 255
3.7391789614041757 3.647739087565428 0.990361730458586 9 313 110
3.713951658948372 3.4480007113290383 0.973710081373914 9 313 201
3.7259202187426337 3.3602586140237607 0.9533913247576773 9 313 239
3.727963786802389 3.56777322917725 0.981713359321978 9 314 147
3.7157629503214613 3.3913516348905315 0.9612465013440784 9 314 226
3.8438971340449566 2.5734075627830943 0.761747255301397 9 314 502
3.8663623392356077 2.5203080870592136 0.7407837352544628 9 314 513
3.7248811608794608 3.623175965781147 0.9894793399831714 9 315 121
3.72695785394536 3.60654380921695 0.9857082663165561 9 315 129
3.730227791579523 3.324612141825965 0.9399410720480217 9 315 254
3.628316379088993 2.838534232663904 0.9221853017467097 9 315 458
3.572714102209489 2.7884674517011288 0.9460028303759784 9 315 489
3.8615000048021915 2.491739093074301 0.7355896150750388 9 315 522
3.736808027299909 3.6421735440061935 0.9830592688644826 9 316 113
3.726189127636828 3.5574373368569976 0.9758763831528827 9 316 152
3.625311930571848 2.8128063211494387 0.9170723971535946 9 316 468
3.7143981064632214 3.4646753930977563 0.965457011954689 9 317 194
3.726731897456534 3.5775982297831463 0.9734832488123921 9 318 143
3.7258284331660536 3.5387309174790564 0.9652409573915253 9 319 161
3.7218929321157748 3.523115913121097 0.9650467695180609 9 319 168
3.7150314046604036 3.485265512718251 0.9630294576329318 9 319 185
3.6215040688191507 2.852075204781647 0.9170057902276579 9 319 454
3.603716062572461 2.7921229184968444 0.91780682991 9 319 480
3.736890612211292 3.650035108333836 0.9738277616648106 9 320 110
3.7296745516851253 3.632021040779662 0.9751551151293194 9 320 118
3.6216051957424944 2.8811746132487253 0.9187594855545316 9 320 443
3.5695509384710995 2.7701927596401426 0.9313416402043442 9 320 496
3.7256688980526897 3.6020965081365435 0.9701172460989602 9 321 132
3.719276338342593 3.43174516275763 0.9467315622972261 9 321 209
3.5607960212588607 2.7675753650660804 0.9332848449118459 9 321 499
3.7180810053073854 3.3742457267785038 0.935546321521783 9 322 234
3.7335119265456425 3.3542014998239105 0.9233300970141824 9 322 242
3.672406553752827 2.800806235578446 0.8706615098307317 9 322 462
3.5750912462237405 2.792767293021347 0.9262338850803725 9 322 486
3.7198191306495225 3.5720916639385942 0.9634962565788499 9 323 146
3.7224964688882425 3.5615308442256857 0.9602336068464159 9 323 151
3.7158706326838855 3.411667407444307 0.9401036206199025 9 323 218
3.6060220339801354 2.792223047509167 0.9052618437173414 9 323 479
3.6892718703215186 2.833658128921286 0.8600936286930593 9 324 447
3.5886896284247785 2.79441803163693 0.9130009004775569 9 324 482
3.728149536516363 3.633645840869912 0.963239238066998 9 325 118
3.694174526623555 2.9454056945990077 0.872243760861652 9 325 406
3.5748687052844517 2.7892890189328146 0.9175589085959179 9 325 487
3.8678678265817177 2.5629523000981367 0.7078653573819319 9 325 499
3.724982052860713 3.5930360585871473 0.9559172689340477 9 326 137
3.7134161000424255 3.5048783641502643 0.9485009973549732 9 326 177
3.710132003409856 3.484803506411312 0.947198033250031 9 326 186
3.7192495718921808 3.4329228784931023 0.9333862700384301 9 326 209
3.686931834027288 2.8115770301734364 0.8519263330327034 9 326 455
3.7141369821232226 3.3917943861571227 0.9270237597862474 9 327 227
3.5655650488478723 2.7811841539359747 0.9162606780268552 9 327 492
3.7212459129340676 3.543379786225222 0.9447591244503606 9 328 160
3.7212012648073087 3.578545072421193 0.9478690452405599 9 329 144
3.7120034762760192 3.4542037425196295 0.9330368259373776 9 329 200
3.6869154335749617 2.8592063348348358 0.8507052325980442 9 329 438
3.8662438185155708 2.562253067934844 0.6944905956239636 9 329 499
3.7216267449584395 3.6260581252348425 0.9527601703869457 9 330 122
3.707179328206573 3.021008496777948 0.8620839066719851 9 330 376
3.6947599268020777 3.0068422843702156 0.8672379788944964 9 330 383
3.677496560014043 2.8014142607761765 0.8438952945863942 9 330 460
3.7138660844455096 3.4410528066561508 0.9243248496106853 9 331 206
3.664568677021803 2.7999042268819823 0.8484553700310926 9 331 463
3.7233477822096575 3.5841164113044157 0.9395053972186148 9 332 142
3.7128830327664275 3.4865076064900378 0.9297122320531557 9 332 186
3.718060100479037 3.4159071339972047 0.9148929568084905 9 332 217
3.7035479204434325 3.0568566856142914 0.8643141013518192 9 332 363
3.688219995244669 2.946963365855167 0.8554406271605386 9 332 406
3.719882138593146 3.6055932551923524 0.9425102918159304 9 333 132
3.7283084277451954 3.218707185020291 0.8731634949921445 9 333 298
3.6873250963021196 2.9825404312877444 0.8589328049884657 9 333 393
3.567338310569287 2.772667430107924 0.8971952904452813 9 333 494
3.7380365792810313 3.642804786197218 0.9349517137264467 9 334 116
3.706284658353373 3.0478407858706635 0.8552750556107249 9 334 366
3.6802406319037555 2.8360094244822984 0.8359197483651762 9 334 447
3.5931148198456757 2.7913055404640352 0.8817509920729576 9 334 481
3.7183446661977246 3.5299138461158672 0.9254914775094489 9 335 167
3.7141346071578067 3.5097126653196993 0.9246993189095293 9 335 176
3.7032962116820105 3.127494204299329 0.8674713514485883 9 335 336
3.711681242681143 3.0243783580697574 0.8450909090688408 9 335 374
3.7141652843973962 3.478634483893136 0.9167625194080076 9 336 190
3.699556140515667 3.151611511776164 0.8709180246941344 9 336 327
3.6989431541090054 3.0792942811857107 0.8591673665008197 9 336 355
3.7094148900024644 3.0439693924979903 0.8467915603084915 9 336 367
3.6800677731909817 2.861137319545521 0.8342091338070781 9 336 438
3.7200189175562404 3.561493745694853 0.9243588659029245 9 337 153
3.7068282892420834 3.129130743891294 0.8568346930001344 9 338 335
3.6851907296414184 2.9665285268393116 0.8428061598643184 9 338 399
3.669486235461418 2.8379331444980043 0.8308377882630074 9 338 448
3.6676796695367937 2.8133219263791833 0.827802989951807 9 338 457
3.5698455669302245 2.777496527097397 0.8824779129508331 9 338 491
3.7398600614280086 3.6406980753533844 0.9200189705646908 9 339 118
3.7194424853044525 3.280818716091065 0.8717565544464694 9 339 274
3.701723315082295 3.022277732006747 0.8389851043663026 9 339 376
3.6921924380461806 3.0123486649684454 0.8432403361219345 9 339 381
3.694429582698155 2.989852158061007 0.8380344974481642 9 339 389
3.722133640395566 3.584545082239815 0.9188491588145635 9 340 143
3.720264905721285 3.5248847306731346 0.9098733136080873 9 340 170
3.702695894178243 3.106870443297971 0.8497820957468891 9 340 344
3.6955503446017888 3.0854848467266076 0.8506139865263675 9 340 353
3.64319978272338 2.801144998811576 0.8350015533324193 9 340 466
3.722228767787886 3.560803490494253 0.9120362359954625 9 341 154
3.731888591952341 3.20586271317595 0.8454136255415701 9 341 303
3.707919985859683 3.1803671073664863 0.8561069815215333 9 341 315
3.7085397148477073 3.0331749286048892 0.8306041645135256 9 341 371
3.6283004321104735 2.798333308367652 0.8408961421439152 9 341 470
3.7230537745365053 3.619984004902674 0.9189275821743679 9 342 127
3.713927347624476 3.507269100681701 0.9053794998738324 9 342 178
3.7038143013317626 3.2515413390587087 0.8679685281994914 9 342 287
3.714106767961022 3.2019653261560017 0.8529971685046281 9 342 306
3.662556769219004 2.868763480031693 0.8284254956483068 9 342 438
3.7207899393668513 3.2811391690644887 0.8594562679819637 9 343 274
3.6908352344757716 2.9989784106053587 0.829923451050741 9 343 386
3.6860300934632706 2.9764385147496837 0.8290894867016261 9 343 395
3.5956800279306487 2.795160873104401 0.8550737598891105 9 343 478
3.720965120370294 3.54619476200579 0.9021440813363386 9 344 161
3.708046028969341 3.2310751147506345 0.8560233015691091 9 344 295
3.6928328166594397 3.1915444203026397 0.8588634566032847 9 344 312
3.7074584260578485 3.152363216135196 0.8428281065666628 9 344 326
3.695156613984875 3.072306121599053 0.8368348812758188 9 344 358
3.7215827541698667 3.5905672248054086 0.9066858077655497 9 345 141
3.7061331317577864 3.48763889012238 0.8987232597962619 9 345 187
3.720949330759972 3.303592280028334 0.8574528717711933 9 345 265
3.7024694863785594 3.254552870584428 0.8607412239684789 9 345 286
3.692353634438564 3.0652466457481586 0.8344411440337569 9 345 361
3.63998531597088 2.854592906520258 0.8283985876523647 9 346 447
3.571507040593725 2.787398005737888 0.860512675305163 9 346 486
3.7146339580748546 3.5288979585054636 0.8949616106017101 9 347 169
3.702161163795517 3.143455441755399 0.8358424310302648 9 347 330
3.6311908965878206 2.8480106047989113 0.8299280070708255 9 347 451
3.625668540849815 2.826099389984459 0.8296555196534479 9 347 460
3.559115352961752 2.7733046418048195 0.8631626878665536 9 347 494
3.744434227076516 3.6405204211217175 0.8925274094023853 9 348 120
3.7190755008440863 3.602195396545522 0.9021605099757127 9 348 136
3.71955063566054 3.569474234251191 0.8961370922729686 9 348 151
3.71037673210971 3.5088502891091142 0.8914516389268012 9 348 178
3.708600901170277 3.363378384180519 0.8671764943489855 9 348 241
3.694754310992626 3.122140605566883 0.8309940944071124 9 349 339
3.689247242310727 3.1002900456588005 0.8307223612929044 9 349 348
3.6372360380927873 2.8939236465269103 0.8281559929920519 9 349 433
3.7197791304966303 3.5502425582117203 0.8871204277211505 9 350 160
3.7017707464768246 3.3855043188050176 0.8698213387093054 9 350 232
3.723342481224755 3.3432585384231053 0.8483971919514339 9 350 249
3.7032081330372075 3.259916100333068 0.8467959570913144 9 350 284
3.7039981010650163 3.1663090296840037 0.8298165291550376 9 350 321
3.6783162805204057 3.0644105078436903 0.8285493212304201 9 350 363
3.6720141375251836 3.042860506869595 0.828846183205918 9 350 372
3.6681621287319013 3.0310319761103695 0.8292639411853295 9 350 377
3.622350541782966 2.863083954298929 0.829434637749435 9 350 447
3.606681188742174 2.811277381835843 0.8304848769802196 9 350 469
3.5714290115289495 2.788877679687675 0.8494105891433288 9 350 485
3.726939794755771 3.623854297247786 0.8926907528860453 9 351 127
3.719665239475958 3.3291689870267906 0.8454116706718856 9 351 255
3.7140553626653627 3.2102475007455853 0.8280729043917017 9 351 303
3.7430229209289543 3.639666154911826 0.8822441630878575 9 352 121
3.7041990349273313 3.3786909317633484 0.8613903117622453 9 352 235
3.7207688959114473 3.2823124673617476 0.8334952466002215 9 352 274
3.688234037725992 3.1497733487282416 0.8312789547349165 9 352 329
3.681966162740384 3.1180053344933945 0.829747879858014 9 352 342
3.6781102048985823 3.0958071555172384 0.8283358152558247 9 352 351
3.5964767684228187 2.8029524641623933 0.8298059524552375 9 352 474
3.721064613682474 3.5976828576419613 0.8864103470644934 9 353 139
3.7120459970225665 3.4068010729788916 0.858404485294305 9 353 223
3.7008326288951823 3.238230613727955 0.8358024715112984 9 353 293
3.685272301113085 3.1937245893941415 0.8380970021531469 9 353 312
3.7071513981314377 3.501457770699144 0.8756604257370545 9 354 182
3.7034082851713093 3.490049692622337 0.8760897058926683 9 354 187
3.7083696408628937 3.4305268694688715 0.8622120600608454 9 354 213
3.717371322592789 3.307826826462268 0.8344113223949032 9 354 264
3.682851233200381 3.1639728676910104 0.8314799878664485 9 354 324
3.603201923268047 2.8479459359706634 0.8275498834347459 9 354 456
3.7043500007968304 3.3840140348892165 0.8537223159520148 9 355 233
3.715831411096184 3.3228971571180317 0.8352060002336669 9 355 258
3.7116154958114502 3.288964408392081 0.8319201035627575 9 355 272
3.700820625014503 3.263338415527751 0.8344653289465827 9 355 283
3.7171063560637254 3.551963639304869 0.8725658365186352 9 356 160
3.712520316782 3.5337674750922217 0.8723395493942346 9 356 168
3.7153172242147807 3.3523240318475223 0.8379182492525431 9 356 246
3.678217385576469 3.1879307709893587 0.8330019968031992 9 356 315
3.6552552870410917 3.079632241271812 0.8287833372781379 9 356 360
3.711988174763529 3.6110175993847995 0.8838245464675568 9 357 133
3.7145302970931278 3.600491342459256 0.8802378393728026 9 357 138
3.7177593002541367 3.578948908580818 0.8742103125812775 9 357 148
3.7031077757826303 3.4727194304059914 0.86482572803974 9 357 195
3.7123770999547356 3.4682725903236618 0.8578588903282927 9 357 197
3.7041728121334403 3.377318058369491 0.8469364319744428 9 357 236
3.7156333513952617 3.340339945122323 0.8326534304584343 9 357 251
3.710724504334983 3.3139921996926844 0.831173859064224 9 357 262
3.5950780918931704 2.8894927412164426 0.8316544180440962 9 357 442
3.571690775693104 2.8001337807578883 0.8311191418639507 9 357 480
3.689538618548564 3.240755834596304 0.8291710808015751 9 358 293
3.6673270487908285 3.1629242812395235 0.8299358415480442 9 358 326
3.6698588242295678 3.1974931078216535 0.8316014726186111 9 359 312
3.6351305411077464 3.0631302443340935 0.8305096405488098 9 359 369
3.579525915540604 2.835646558763089 0.8265223855867849 9 359 465
3.7076374438461084 3.498677942774436 0.8580889432646965 9 360 184
3.697267604441996 3.313598037330014 0.831396432232524 9 360 263
3.6740660674065753 3.2215406100060453 0.8302516079571765 9 360 302
3.596450399956712 2.9307177241953983 0.829538607873489 9 360 426
3.736485573034721 3.6443404199707126 0.8623977752824963 9 361 120
3.707897956105647 3.3562771470895374 0.8291168859945618 9 361 245
3.6856356782277278 3.2713704203728025 0.8286432698100049 9 361 281
3.6609589710296904 3.1871570378454614 0.8299253306696979 9 361 317
3.6508743560774937 3.147144011698327 0.8294277294983969 9 361 334
3.6423197969400087 3.126898546480858 0.8315052246453891 9 361 343
3.5701974364599236 2.82703980252125 0.8254469201279893 9 361 470
3.5614362036994613 2.802549929872437 0.8268892803679612 9 361 481
3.71436886608147 3.5603719584009017 0.8592050400553921 9 362 157
3.712471526536839 3.528893577678547 0.8547261212999895 9 362 171
3.7079968357225024 3.4324465251202105 0.8400966699315136 9 362 213
3.707846861482012 3.4113232063164296 0.8363305380465447 9 362 222
3.6252299194497617 3.0664144240438644 0.8291216891054174 9 362 369
3.7428396867092397 3.639516189111802 0.8516001947356429 9 363 123
3.630533753161385 3.1152883449246067 0.831614293156784 9 363 349
3.5726482456874313 2.878777147181277 0.8275020499437389 9 363 450
3.568193344788824 2.867938455805529 0.828538255016249 9 363 455
3.705627060857612 3.4000391164201886 0.8300173987586437 9 364 227
3.6902808150234634 3.3391493612106045 0.8292601750135287 9 364 253
3.678234217991629 3.2947672911729735 0.8292952932033415 9 364 272
3.6634951940503515 3.2533663103645947 0.831715974911195 9 364 290
3.5756365478730574 2.921846026370645 0.8305286689364553 9 364 433
3.5718863065568094 2.9001341268530156 0.8290844148232064 9 364 442
3.5627379123615017 2.8467566967265343 0.8254851407309172 9 364 464
3.5620833263916793 2.7792591549060517 0.8134909715052162 9 364 489
3.718290872497456 3.6623735973283797 0.866979070801424 9 365 111
3.7244459427049437 3.6526651160760903 0.8609714863343549 9 365 116
3.717051469237739 3.5414132735237693 0.8454594786147023 9 365 166
3.7109698288184436 3.520696144625327 0.8457905538953272 9 365 175
3.617640128390722 3.0991939173025704 0.8317184858635278 9 365 357
3.7116230254723033 3.6055382835399863 0.8582559964813736 9 366 137
3.7206542546210004 3.5868082011727007 0.8485786365319519 9 366 146
3.6979330846306033 3.479605679254776 0.8442940916452912 9 366 193
3.694252048598096 3.3797450174022368 0.8282953438755147 9 366 236
3.6861000015411705 3.3542202414351747 0.8291584548230009 9 366 247
3.6783728879748963 3.3167408003624717 0.8275118247265105 9 366 263
3.6710946488847283 3.2742216221796894 0.8246219136593327 9 366 281
3.562182451250045 2.797755028294554 0.8110230622098049 9 366 482
3.6580520475387592 3.2399930984422967 0.8243548162057306 9 367 296
3.7404009249345602 3.645512411893032 0.8402512864047968 9 368 121
3.6977571345431715 3.4456720555747413 0.8324250008845505 9 368 208
3.7036003178358943 3.424596222761147 0.8244479611919313 9 368 217
3.70650423015542 3.5012306892856766 0.8339092563636208 9 369 184
3.6949500204127443 3.4757977192396092 0.8371632781809377 9 369 195
3.6909279530018555 3.408811715507765 0.8274044773383704 9 369 224
3.6727758398005594 3.360602018363811 0.8309703228421019 9 369 245
3.667391623469186 3.325631427543804 0.8281552018409771 9 369 260
3.637081739770637 3.2223790427678596 0.8298463884183473 9 369 305
3.61435051587118 3.1423931963275105 0.8306368389301282 9 369 340
3.7161588162818564 3.5943520539535223 0.8418429095374627 9 370 143
3.6293312978847174 3.202257593647624 0.8286138768078861 9 370 314
3.6184654133385976 3.1829380724076657 0.8325501322383128 9 370 323
3.615229423998871 3.166699372594673 0.8317515231225352 9 370 330
3.5676603943569303 2.9609632876147702 0.8262098107526749 9 370 419
3.565850833173867 2.933389235351518 0.822287052783798 9 370 430
3.5603431875042864 2.7755761157398124 0.7964590309269344 9 370 490
3.726687964846796 3.646708653854465 0.8415403589990006 9 371 120
3.7165506455288546 3.57252445712927 0.8346355375081369 9 371 153
3.6974566826695323 3.4763873795285782 0.8298505892535616 9 371 195
3.6739911152429165 3.386678718316673 0.8293332295454584 9 371 234
3.5704413130246087 2.7992180895987553 0.7909197287922491 9 371 479
3.6359730293152204 3.2803778700104402 0.833038296202359 9 372 281
3.622519701346329 3.2303922670447456 0.8330165220123703 9 372 303
3.605709281190876 3.139939316669186 0.827692945298385 9 372 342
3.5786800439409543 3.0598419226366778 0.8314954071741958 9 372 378
3.5735169283266726 3.039356075526577 0.8312406456003124 9 372 387
3.7168226069267485 3.564270244688318 0.8272002150011792 9 373 157
3.6812316307994055 3.4332267608439873 0.8273747976046881 9 373 214
3.642802866018375 3.3078767119664647 0.830627220878982 9 373 269
3.6257350536960695 3.253718495220824 0.8323593115149546 9 373 293
3.6862086019578584 3.6769965888640153 0.8674351694510664 9 374 103
3.7072240854480114 3.543561226091043 0.8271839426495581 9 374 166
3.699422766183378 3.5227707807936395 0.8287343288482856 9 374 175
3.6879006584558236 3.4838300975355434 0.829456116321404 9 374 192
3.6835541729912897 3.4564209334960845 0.8273062488879779 9 374 204
3.7332982069062615 3.6339035557438724 0.8231200174218714 9 375 127
3.720361353037997 3.623193938349811 0.8302419471913522 9 375 131
3.694491022932758 3.507007219761127 0.826378656070784 9 375 182
3.65512947416142 3.3677562336664586 0.8276698739568136 9 375 243
3.7043013058474825 3.6038513716037053 0.8351222532204445 9 376 139
3.666378002671961 3.436470962971069 0.8300098220785657 9 376 213
3.5964868394004172 3.1693083957363015 0.8285059434232305 9 376 331
3.575370676965284 3.0855251711264113 0.8274640169628835 9 376 368
3.569092898944029 3.060616644891039 0.8271542550422398 9 376 379
3.576557015310704 2.799363004918634 0.7717739419653937 9 376 477
3.7140213181356403 3.6664537381696234 0.8374132234756977 9 377 111
3.6611870401516367 3.4162685164342474 0.827008643202038 9 377 222
3.575943222199128 3.121976332994596 0.8312498388468883 9 377 353
3.6710302743581034 3.6920854105401535 0.8703407749148127 9 378 95
3.692193708897692 3.6713819696124883 0.8511932226990366 9 378 107
3.702007871500529 3.5955174150296916 0.8295315239113537 9 378 143
3.6771857281868465 3.4868999921393105 0.8263526684171059 9 378 191
3.6669172352440453 3.4664171236739305 0.8297541267939419 9 378 200
3.6389695015468746 3.3487745573163092 0.827072350191424 9 378 252
3.6243917068740945 3.2875574543014467 0.8257017401652136 9 378 279
3.568391867237591 3.102507942874791 0.8301034460268932 9 378 362
3.5531028924079404 2.7886003355652473 0.780497701680877 9 378 486
3.6307812746619925 3.3335435480087456 0.8271909956269845 9 379 259
3.5903258113961094 3.2303816303165576 0.836294199350808 9 379 306
3.5925089935862564 3.2086799180533725 0.830525802904899 9 379 315
3.5723871893864967 2.7982097007103492 0.7655480867636495 9 379 478
3.7094305669059415 3.656095622488115 0.8302978896383482 9 380 116
3.644141079512676 3.3970445849836226 0.8270763362568327 9 380 231
3.6432071350245074 3.3764839803723525 0.8237579470652613 9 380 240
3.691210068858253 3.5909153979386748 0.8279752279237245 9 381 145
3.617060249872061 3.3169178689974594 0.8282525357126442 9 381 267
3.596190535215996 3.26442644875481 0.833126966450177 9 381 291
3.7042864392958306 3.666733635102703 0.8304877285399361 9 382 111
3.678260912286812 3.5702024805266275 0.8305187682014237 9 382 154
3.677518255093407 3.550428865885659 0.8271942629425414 9 382 163
3.627179182438602 3.3574277332217624 0.8260255305383781 9 382 249
3.617961642015024 3.3376819760703356 0.8288585737013753 9 382 258
3.6677094210713674 3.6934615874922696 0.8595706067669208 9 383 95
3.670893516492729 3.6859195233269135 0.8557729213491101 9 383 99
3.666373106294636 3.530117449875929 0.828525609843124 9 383 172
3.646644614041225 3.458565223194091 0.8288703941129688 9 383 204
3.6415808622415162 3.438473624841073 0.8286205354085308 9 383 213
3.6907823150298498 3.637403507638735 0.8289872660194036 9 384 124
3.685718563230141 3.6173119092857173 0.8287374073149656 9 384 133
3.65528162524157 3.509985757463072 0.8298783490040669 9 384 181
3.586108626918786 3.245605441222498 0.8284472380084754 9 384 300
3.57987551851196 3.214154256346172 0.8268182510756126 9 384 314
3.575067129870991 3.1917163226996594 0.8259203568505814 9 384 324
3.65637115258739 3.7160717468037214 0.8669494543826379 9 385 83
3.630012337473631 3.416781412433915 0.8272389124303876 9 385 223
3.5878985386425657 3.273184466197953 0.8297966407445425 9 385 288
3.6744056693382507 3.610036943568984 0.8300313986326683 9 386 136
3.6045829007336083 3.3397073613488186 0.8279137335132141 9 386 258
3.5534365816027114 2.7745201485641044 0.7537001943742936 9 386 490
3.6218361444389973 3.4286014886824168 0.8300479138087509 9 387 218
3.5904123118474116 3.300569071395731 0.8278320781777918 9 387 276
3.581348832372683 3.2813645522155586 0.8307116098111244 9 387 285
3.6866411166623214 3.6659571017909776 0.826541131653181 9 388 111
3.660817854216237 3.576891545502523 0.8279345325446176 9 388 151
3.635719145909105 3.4840041389730976 0.8280299703620522 9 388 193
3.6168059813647955 3.4089618144992504 0.8270967455562596 9 388 227
3.569279685679187 3.2237386627078317 0.8254185315565052 9 388 311
3.55747555279236 2.80186153807053 0.7501426688933749 9 388 479
3.639672743203373 3.5301266681764374 0.8315350055746318 9 389 172
3.6067815205212286 3.389586164279593 0.8279067495175289 9 389 236
3.6556353527386287 3.60045251299736 0.8309674686949322 9 390 140
3.644959065548385 3.5480628735149193 0.8284306092949398 9 390 164
3.585779093963179 3.333310778927575 0.8295306424965815 9 390 262
3.5725128469806773 3.273988017865913 0.8275360355509495 9 390 289
3.5951192219948442 3.3706657255348262 0.8273009059355303 9 391 245
3.5909767132518615 3.350889431510451 0.8264249804615118 9 391 254
3.5576918768355674 2.797961211583986 0.740164519470394 9 391 480
3.6661964944206478 3.703043623277534 0.8382113121234518 9 392 92
3.666603136447879 3.6846326499584174 0.8341925839767153 9 392 101
3.627196799969588 3.5216042850764633 0.8309019351245452 9 392 176
3.6171382757257504 3.4650078966202775 0.8270399873147505 9 392 202
3.6121777100741173 3.4453257130104675 0.8267952200836495 9 392 211
3.5785984499494505 3.3254416330930265 0.8278308070383861 9 392 266
3.656762481548411 3.6458694281611925 0.8310241947764769 9 393 119
3.6546720217332584 3.630905977655135 0.8295716975844749 9 393 126
3.593401420135215 3.3911355269100745 0.8272231609408118 9 393 236
3.5576810967513626 2.7692274646714994 0.7283062512148825 9 393 490
3.6394020858913967 3.723874197758819 0.8572362404607521 9 394 79
3.646385182394143 3.7115996325412386 0.8494658872548974 9 394 86
3.661397070622389 3.6678775974078515 0.8292432107222807 9 394 109
3.643671599563448 3.61115408917785 0.8283923188408007 9 395 135
3.6205486747604585 3.532724702168967 0.8299625948118461 9 395 171
3.5596036786967957 2.7982230212550405 0.7266419181148949 9 395 479
3.5719459528955877 3.333503409609619 0.8235275693551097 9 396 263
3.6160372846060618 3.7214264384698637 0.8665966831016485 9 397 78
3.623637692862142 3.5820907861149376 0.832245563192465 9 397 148
3.624144973999473 3.5674866915863395 0.8288660730413929 9 397 155
3.604741769777986 3.5004702107466814 0.8299513970697394 9 397 186
3.586290605435008 3.4272609781879453 0.8290409685573517 9 397 220
3.579574048398247 3.364054269247916 0.8212195780766443 9 397 249
3.730787492859948 3.1996524977888487 0.6720727276887752 9 397 307
3.6378750276318 3.6321934480773255 0.8289158960789256 9 398 125
3.5817267780886133 3.386168471595939 0.821368194166355 9 398 239
3.579817897022125 3.3752742165992204 0.8205915942025899 9 398 244
3.7199282302553938 3.233873985105838 0.6841883216132995 9 398 295
3.6425810441809574 3.710850960683594 0.8387869791726772 9 399 87
3.5789017711648436 3.4020546883938776 0.8213415892118676 9 400 232
3.6253682731456824 3.6065677853023437 0.8250789965595136 9 401 137
3.6118835462286603 3.5861856771153175 0.8312848851773766 9 401 146
3.5906264161405357 3.5051550583736533 0.8309230798757441 9 401 184
3.5847223150311214 3.4817291811154574 0.830631756147327 9 401 195
3.5818025264780924 3.4668323219780617 0.8298006093043995 9 401 202
3.5778017215249416 3.4476458871345645 0.8289160403844524 9 401 211
3.6234728508940623 3.6456408083956275 0.8319551235680208 9 402 118
3.625598806147663 3.6276010417057467 0.8265505554377185 9 402 127
3.841487503115626 3.3623139698620137 0.6037398292079785 9 402 242
3.624719002753519 3.7202517648281193 0.8438583484865664 9 403 81
3.6275101863432475 3.675114958858324 0.8322620610079061 9 403 104
3.7002112161792855 3.3022598897057267 0.697801763995463 9 403 270
3.6970456105037863 3.279779858519474 0.695574837449169 9 403 279
3.6975025862092092 3.2617534874646577 0.6914559311885916 9 403 286
3.7106604792653846 3.394059427948121 0.705732988697843 9 404 233
3.592607536771757 3.7285383862671915 0.8654507160582359 9 405 73
3.603596652149255 3.726037520590284 0.8536980846397662 9 406 76
3.5910099523101917 3.577152173883942 0.8322299233600798 9 406 150
3.5783460640410016 3.480731241123973 0.8218764402563744 9 406 196
3.720248875659617 3.4237087705788376 0.6982362811871002 9 406 221
3.8894727396923994 3.9080745769314347 0.6639361680394983 9 407 30
3.6251581511704867 3.7062529615959017 0.8298842653182608 9 407 89
3.585610642477768 3.529567236336701 0.8237541850832453 9 407 173
3.787823238679272 3.356465809406784 0.627579869724481 9 407 246
3.6738713425559464 3.263529538630859 0.6978712481272116 9 407 287
3.588057539294236 3.7568132432987364 0.8672906252434011 9 408 58
3.5884209555760544 3.5508241543392827 0.8233336400134155 9 408 163
3.701736021005117 3.388011974242164 0.6990941254225181 9 408 236
3.666279840521743 3.3467712938559613 0.7153907666357218 9 409 254
3.665516655156768 3.327294021648406 0.711855176878347 9 409 262
3.672360001472259 3.311680090032677 0.7030985052269549 9 409 268
3.5910855764047014 3.621019481431939 0.830778927884094 9 410 129
3.58892652274057 3.6025920057648495 0.8285690021469108 9 410 138
3.5807606181800398 3.5833395550380365 0.830970542630924 9 410 147
3.7312028143401834 3.483418995542036 0.6897550533367732 9 410 197
3.598686770118018 3.6546498630143223 0.8292267638608894 9 411 113
3.574293142770998 3.5381574832298948 0.8238070010511811 9 411 169
3.7724039725553413 3.509737488428913 0.659317308121436 9 411 187
3.6569695626294134 3.2717633579921204 0.7007011474025914 9 411 285
3.887993083749535 3.9036377940840485 0.6479094668102311 9 412 33
3.605890332374772 3.7195160430005 0.8346973413242673 9 412 81
3.606798755674551 3.7099947893808274 0.8319251702619215 9 412 86
3.5996415027386 3.684878250136759 0.8322762825045036 9 412 98
3.749393478472407 3.530905119766215 0.6790994045722865 9 412 178
3.7090017386245693 3.469082483170321 0.6982335398380749 9 412 203
3.7243840761465714 3.4546443293675253 0.6827950958363455 9 412 209
3.7767125134646293 3.3636660939471774 0.6212915086206681 9 412 244
3.657680500471563 3.2917041639758575 0.7013350384256666 9 412 277
3.588535495084249 3.7427120772875195 0.8484087227436499 9 414 67
3.5987054552461437 3.671688114327639 0.824860683008839 9 414 105
3.7550402392917093 3.502526430943296 0.6621037945392632 9 414 190
3.6913003012331282 3.416686814832596 0.6950334358887649 9 414 225
3.684005587775269 3.3975706813203748 0.696795553895101 9 414 233
3.592843746690128 3.727173552605725 0.8389521112299879 9 415 76
3.727604375764831 3.5352727766840837 0.6882250290407808 9 415 176
3.756995723838874 3.5176987939661806 0.6606102355410619 9 415 184
3.7027868031485887 3.4433491692673686 0.6884182535987924 9 415 214
3.659611993869259 3.3702315510683074 0.7075549731440929 9 415 245
3.730357361874761 3.5575089195000524 0.6846056074735072 9 417 167
3.71959506459035 3.4559947917993354 0.6712583076031947 9 417 209
3.628149719233785 3.351869052132132 0.7201444558768597 9 418 254
3.6234787533811863 3.333335922242854 0.7199139782542259 9 418 262
3.8806176143556317 3.900801358808895 0.6303456016620683 9 419 35
3.591156856472458 3.701466493051972 0.824164271170245 9 419 90
3.585074154859935 3.690378780421895 0.8267245984973406 9 419 95
3.6957370272161203 3.4803723281334467 0.6898750924598636 9 419 199
3.710900653194014 3.449208708600164 0.6705998038298633 9 419 212
3.668705292970396 3.4089970055223895 0.6964076792424916 9 419 229
3.6625499383198568 3.3780508205562474 0.694673726175074 9 419 242
3.748349531931035 3.58881372391621 0.6673301791017585 9 420 155
3.6648250665018027 3.387768754702342 0.6918760608202572 9 420 238
3.685313066967259 3.4665001418996457 0.6892557709361511 9 421 205
3.7005554464704904 3.4618550449575407 0.6756431620760592 9 421 207
3.5899142574700713 3.719836020447777 0.8212704030613407 9 422 81
3.5863126569937003 3.7479702373554074 0.8278512423783645 9 423 66
3.7201730802441864 3.641986581045323 0.6930721803083969 9 423 131
3.71728018124174 3.565497655926482 0.6785025108430995 9 423 164
3.7280390691226897 3.5139206781924606 0.6581143736691287 9 423 186
3.710097687123341 3.491492137068273 0.6680492938650866 9 423 195
3.663695957758244 3.424402003794567 0.6917282133891531 9 423 223
3.5873411367761587 3.7391959728801676 0.8224083880226192 9 424 71
3.587392959387333 3.729658702249874 0.8202423086784694 9 424 76
3.7256197929874517 3.6318059623347687 0.683205188075336 9 424 136
3.6849194370365304 3.535272608155049 0.6956549621459758 9 424 176
3.8805553994745914 3.8903245760999368 0.6082342493878348 9 425 41
3.5918782894537413 3.711922260659236 0.8098786195300306 9 425 86
3.7322046877676245 3.609977927905045 0.6697377640177391 9 425 146
3.690276824542574 3.443619500194123 0.6676689340277168 9 425 215
3.6305503118058393 3.3623976295809337 0.6994958376168063 9 425 250
3.6523325915241265 3.4040661735400555 0.6875292268357143 9 426 232
3.642967924884137 3.383120358113059 0.6906972133838141 9 426 241
3.622799158660622 3.3322755482437683 0.6962362003186512 9 426 263
3.6083691883442377 3.7226867681464944 0.7930483292123667 9 427 83
3.6389538868381632 3.7241831129581042 0.7676373656039184 9 427 86
3.676444440539326 3.5425236579442387 0.6952752227303229 9 427 173
3.7184183069206873 3.5147048907670726 0.6536922314203111 9 427 186
3.6546922149574392 3.4303019997409714 0.6883813484154179 9 427 221
3.6547172719140386 3.4796181458308255 0.6964220434684345 9 428 200
3.58664011210288 3.7469374426967645 0.8114785334994559 9 429 68
3.7163835764286057 3.5955763469037705 0.667360392701946 9 429 152
3.693515053292113 3.563047373414331 0.6793842418358862 9 429 165
3.6373225861679344 3.3982979980131103 0.6897638007674494 9 429 235
3.684524009363205 3.4569923231444806 0.6599168634713988 9 430 210
3.6652857323332806 3.4355856815267956 0.6714155673602591 9 430 219
3.590150079003993 3.7257056972747287 0.7983326450209502 9 431 80
3.698425156696161 3.648496281131255 0.6884701101250649 9 431 128
3.6150342280471297 3.3434486806252495 0.6902257224479407 9 431 259
3.6537621752964062 3.4267857157618105 0.6730818140506335 9 432 223
3.687930453742499 3.627505864952761 0.6865911923475361 9 433 137
3.6989218872607337 3.5132135511484175 0.6510254246746636 9 433 187
3.609575091524463 3.358505811341293 0.6923046651754596 9 433 253
3.584572907024418 3.742874943174966 0.7989732637650551 9 434 71
3.5903239777794123 3.7270570845321256 0.7903955766221646 9 434 80
3.689637619755394 3.612390303044364 0.6786196555304982 9 434 144
3.6954442040317437 3.5903533455483907 0.6685678122486869 9 434 154
3.683205389608524 3.4484209530821572 0.6465486270058887 9 434 214
3.661617514374064 3.3981831635746556 0.6536064813173819 9 434 235
3.69039597195364 3.6643274240075403 0.6868567472711308 9 435 121
3.653416045970541 3.5433364925908135 0.6909521744888865 9 435 173
3.6068882187201794 3.394112899835117 0.6967965368244369 9 435 238
3.678261705952198 3.568607807270272 0.6722541265850681 9 436 163
3.6504371511319853 3.5321322487149427 0.6879372584402617 9 436 178
3.6659832132350663 3.526318223338174 0.6731313908887717 9 436 181
3.65501092253453 3.406391369816161 0.6518513704893717 9 437 232
3.6001366706487667 3.3717104341050685 0.691501806284324 9 437 248
3.672298676714536 3.642579994636325 0.6884835899395747 9 438 130
3.692326836016806 3.6097483389770213 0.6634080897409818 9 438 146
3.6602867733498017 3.4280773754543845 0.649167635634656 9 438 223
3.6289369185474176 3.3935280846585365 0.6684717632897147 9 438 238
3.604485336927157 3.3574724247805037 0.6814141114279129 9 438 254
3.6093366650407024 3.4703134805832754 0.7004201704926666 9 439 205
3.6142429891592 3.4545178425943894 0.6924537428383635 9 439 212
3.6013649852364784 3.390598325660877 0.6888333199886959 9 439 240
3.5904485587770565 3.725821637950342 0.7736784299163479 9 440 82
3.6765567553883134 3.663908757835221 0.6837057487292981 9 440 121
3.6747022814192687 3.5188254606165144 0.6514592876340413 9 440 185
3.646298015084603 3.4477625462558463 0.6597789363618328 9 440 215
3.605669223626908 3.3506170843213843 0.6727300805375864 9 440 257
3.6094390110066983 3.333545472459091 0.6654381989482336 9 440 264
3.598070237091636 3.381917492784691 0.6837061348352292 9 441 244
3.664332890980636 3.6230499103031235 0.6788592705854546 9 442 139
3.585974997261518 3.7376432436309757 0.77219544858034 9 443 76
3.665285337429743 3.6434279063639163 0.6797943931827786 9 443 130
3.707649582245129 3.5974855173796905 0.6314701533199456 9 443 153
3.6664072827857703 3.574405749481464 0.6625432543993957 9 443 161
3.649630528599002 3.5206183795379853 0.6647253221700098 9 443 184
3.646164490585955 3.446170219741584 0.6502575871602996 9 443 216
3.6554062701543195 3.412560029268086 0.6341595937044251 9 443 230
3.657919749740654 3.3905877687505552 0.6267590585738043 9 443 239
3.649515487406261 3.5527502155856565 0.6693607176441723 9 444 170
3.58760984179251 3.7350879246525572 0.7646656060428838 9 445 78
3.6182571156132415 3.729131860030663 0.7359551578777157 9 445 85
3.678028606316377 3.5740533213197776 0.6459696375401489 9 445 162
3.638952128386837 3.434952940055997 0.6478193353893483 9 445 221
3.6081787514822246 3.322419287126136 0.6485676146616641 9 445 269
3.6572611546631415 3.61027545654711 0.6700236910305866 9 446 145
3.638860024296672 3.5277063612139066 0.6668443470328274 9 446 181
3.6663651228303067 3.5062087945573466 0.6371594788482842 9 446 191
3.6358250763545166 3.4933618652085676 0.661394758284714 9 446 196
3.6392613003766296 3.420970796475661 0.6411219421561476 9 446 227
3.664453556450363 3.6776501207214523 0.6766023212216025 9 447 115
3.6577058243036404 3.568111336585729 0.6565438085475083 9 447 164
3.6454028074056954 3.382413878492112 0.6233135025357686 9 447 243
3.6483632473915377 3.5539883807282484 0.658499172751541 9 448 170
3.6429125799202495 3.4941956818439897 0.6491074445480696 9 448 196
3.5929203863783474 3.4612264727368656 0.6861728888498304 9 448 210
3.6611672762596483 3.662658768979067 0.6699457740360809 9 449 122
3.659209413232055 3.6072246399898478 0.6584222498941754 9 449 147
3.652502903488786 3.3994862780530277 0.6146694077787396 9 449 236
3.650442227416138 3.3849547509938165 0.6130441698468725 9 449 242
3.605712197233437 3.3758961835181105 0.651211881481458 9 449 247
3.5988658278610726 3.364620133470164 0.654683006204988 9 449 252
3.5998683326022 3.3431761367771715 0.6486381463617734 9 449 261
3.623615065273282 3.4317378787759494 0.6453732739734108 9 450 223
3.6666368189227496 3.638031823871391 0.652993859152496 9 451 134
3.58716763464735 3.7322360133799566 0.7450433182499198 9 452 81
3.706999149766077 3.6055287432659457 0.6053295971293466 9 452 151
3.6357691878739167 3.522573136961873 0.6501016015253607 9 452 184
3.6482334972671175 3.5118113254564216 0.6361539253122284 9 452 189
3.6491261126841614 3.407597120717071 0.6101385396127148 9 452 233
3.6079015374813026 3.313753552921275 0.6249664009640528 9 452 273
3.5946801285290397 3.730699691070482 0.7350292941169148 9 453 83
3.6630776200918227 3.6316024522386208 0.648546919531112 9 453 137
3.6147045124511292 3.7282499550362953 0.7132854206306751 9 454 87
3.7053654850400504 3.5849405961592367 0.5953977562440669 9 454 160
3.650961407589615 3.5494106542410164 0.6365786427541287 9 454 173
3.6396891814477055 3.48886704917488 0.6321746126287289 9 454 199
3.6012860158812963 3.3270025183346355 0.6279709845801995 9 454 268
3.6459316107165587 3.5333336798406147 0.6341761341546119 9 455 180
3.6027240233848588 3.4124720495910386 0.6443821367007065 9 455 232
3.6025809238838207 3.3486860850572184 0.6289525580147204 9 455 259
3.5817918783606073 3.7501220847908288 0.7432132585252333 9 456 72
3.6511663456624284 3.68746539308817 0.6639598883391757 9 456 111
3.6572134604730153 3.6735617172269883 0.6549861660259881 9 456 118
3.6941643587175212 3.6054223887626082 0.6042672893176184 9 456 151
3.609847876646805 3.428782206568688 0.6387408246163011 9 456 225
3.6677384828317985 3.6339277537728156 0.6324919373896263 9 457 137
3.6380065315902277 3.512804346165141 0.6302507086145428 9 457 189
3.609863532493801 3.470556785989275 0.6458951503098684 9 457 207
3.658888125467015 3.6594310534637264 0.6438682203274475 9 458 125
3.648919539947131 3.3992043617116137 0.5890712055491645 9 458 237
3.649787227338158 3.3868843035685168 0.5852349885382853 9 458 242
3.6635660934332654 3.625121435103507 0.6279836319868846 9 459 141
3.656120387005501 3.497938502483888 0.603518566247371 9 459 196
3.5901406051959563 3.724730367595525 0.7180140560288492 9 460 87
3.6619893429653882 3.654208448105402 0.6335436029240233 9 460 128
3.599014450427444 3.4301958811342255 0.6337637580443258 9 461 225
3.6010820556941487 3.3377890256389353 0.6088912664374677 9 461 264
3.606822115034058 3.310258564947484 0.5966871930806026 9 461 275
3.670818943167853 3.480185882661356 0.575749242692805 9 462 204
3.6030806429981213 3.4093197574585234 0.6216735732528811 9 462 234
3.6477652263590272 3.373008562063424 0.5707016644052381 9 462 248
3.7098407287142683 3.5888379116471816 0.562894707536628 9 463 160
3.6864361756819104 3.5650214442685804 0.5789782780670127 9 463 169
3.6591660367060115 3.5415597739064997 0.5987889357050413 9 463 178
3.6721321289256617 3.4925744561523717 0.5743546539516216 9 463 199
3.6455928004099243 3.4751510732305033 0.5949849740823054 9 463 206
3.6569942631586803 3.6058751128587585 0.6137628440744445 9 464 150
3.605174145651052 3.4096740030713235 0.6135612847251808 9 464 234
3.572552947017845 3.747785201172737 0.7262270566697104 9 465 74
3.579354721579935 3.734045332407566 0.7163358675311247 9 465 82
3.662904480283672 3.65200779551175 0.6166170329388385 9 465 130
3.657065770916252 3.5881139033771703 0.6061021293957909 9 465 158
3.6735279950823054 3.481123341128312 0.5636472398670831 9 465 204
3.5975681022872985 3.725297684977292 0.6940094576786573 9 466 89
3.6667016791377502 3.639641995594463 0.606773978682783 9 466 136
3.634975891857701 3.520022723509087 0.6067849897859829 9 466 187
3.6552653857893467 3.3782904540927534 0.5518216563195677 9 466 246
3.5995403561045314 3.316822589889994 0.5892718793105758 9 466 273
3.6086071104511737 3.293325738496953 0.5747428967809336 9 466 282
3.681027074533368 3.4720869276864432 0.5476627095595084 9 467 208
3.6561802665758565 3.627560897298384 0.6074669804887278 9 468 141
3.661580674355239 3.4865153834398104 0.5665835715578038 9 468 202
3.607762272833207 3.4104555309139326 0.5987471526625652 9 468 234
3.5946839575691003 3.3898090369602554 0.6060152582983869 9 468 243
3.6555928025800566 3.663445257480724 0.6140070433005116 9 469 125
3.6452142192409527 3.6129007561780426 0.6111162245211921 9 469 147
3.6060678974187073 3.3483202404905263 0.581433218421177 9 469 260
3.5774713057352097 3.7534233260631487 0.7089123120532472 9 470 73
3.581447527454091 3.7348925538470903 0.7003695795600404 9 470 83
3.6001793004074547 3.332027633578278 0.5797423833382456 9 470 267
3.5843684666926907 3.425932031486715 0.6157735108534643 9 471 228
3.6365464923614814 3.3805582667150587 0.5538712663606526 9 471 246
3.647179972964734 3.357311456891762 0.537679727612111 9 471 255
3.599623008192577 3.3150737912318937 0.5727456317605584 9 471 274
3.6468782717120236 3.603048074472514 0.5975993144407428 9 472 152
3.6124035623233715 3.4039964044469193 0.5799469574723739 9 472 237
3.6386784800069716 3.4873003027466662 0.5726650188752653 9 473 202
3.5985736320110853 3.381052950005817 0.5842711573631016 9 473 247
3.571755776202597 3.747815500263788 0.7016785457178627 9 474 76
3.5958543609015785 3.728935010330491 0.6704462890640891 9 475 89
3.6603073834337874 3.640026870652993 0.5845788325663861 9 475 137
3.6545790285813693 3.6305096783803847 0.5845392335037367 9 476 141
3.599805919933427 3.310816681404605 0.5553116244387739 9 476 276
3.60687705806998 3.2923421217234297 0.5436037409772161 9 476 283
