2.528363660259008 0.8188893787854028 0.8758259017866561 9 93 20
2.55525781653621 0.8313164509041342 0.6467649040364218 9 162 28
2.5485024602619437 0.860660159634105 0.6431332660885265 9 167 27
2.4811984016780118 0.8249090239047743 0.6113782916266144 9 171 54
2.5109694627602135 0.8542473183792503 0.6221785745908771 9 172 41
2.5338684362311956 0.9152780274437748 0.6457030364509777 9 174 25
2.5170493164216223 0.9178280395576479 0.6471643512572783 9 174 30
2.5407145384685696 0.9023240589427726 0.6247251097353677 9 178 26
2.486867015700251 0.8250958713074923 0.585244416333498 9 178 54
2.501658124151003 0.8450707799045423 0.5917218341237915 9 179 47
2.525267563107572 0.8922902834310715 0.6124233566755797 9 180 33
2.48112466705351 0.8862504455947149 0.6060181533245801 9 181 48
2.564248021228175 0.8879010902807432 0.6024828464371329 9 182 22
2.5784378498932865 0.8313048169794204 0.5649938073868144 9 184 27
2.4964214712041266 0.8998759893096437 0.6021056523916218 9 184 42
2.5867145536414475 0.8382168855942678 0.5610197042024182 9 186 24
2.562589799651 0.8306295093963851 0.5495233114808353 9 188 33
2.5563542117956 0.8248267695827451 0.5425975085511547 9 189 36
2.5827048255983174 0.8329489790477151 0.5313931747339871 9 193 28
2.598958519318795 0.84389458782688 0.5296014087270902 9 195 22
2.5647547274417053 0.8411569670645416 0.5244745157990787 9 196 33
2.5555111876989445 0.8346860338080531 0.5170449664074102 9 197 37
2.579252218373477 0.8444028052958328 0.5145453569618997 9 199 29
2.61207902318611 0.8381219926173367 0.49902564406534466 9 202 21
2.619232168791804 0.8346323228869668 0.48910004830989817 9 204 20
2.5455739128523813 0.8544560707237912 0.5010052172437223 9 204 39
2.5848826892636567 0.8511055865706454 0.49489195858761126 9 205 28
2.5993402306840396 0.863630111713289 0.49813472367855804 9 206 22
2.585932746945155 0.8740434469166825 0.4964849062712806 9 208 25
2.5351055038530195 0.9179805483812402 0.5186927353718703 9 209 34
2.567751400121282 0.9331165827370269 0.5198159103346115 9 211 22
2.519565654611627 0.9561184690887152 0.5262189490878004 9 213 34
2.4998848891449432 0.9638891559211342 0.530967200759504 9 213 39
2.5602866397149096 0.9484260264607627 0.513837839688587 9 215 23
2.5060580842036515 0.9390227394005526 0.50084158264872 9 217 42
2.4760229068339816 0.9412241399258765 0.5023364580975371 9 217 51
2.549228465523029 0.9210524990215838 0.48196691584723994 9 219 32
2.6033921323532008 0.9067971651095001 0.46906511826173025 9 220 18
2.5280378687189384 0.853128751959872 0.4324913959362102 9 221 49
2.609561064402353 0.8439575517733588 0.41826404713038956 9 223 27
2.5680325467769816 0.8517775014384961 0.42330899796969357 9 223 38
2.6189688464825283 0.8402471866168384 0.3994133808559004 9 227 26
2.5977730146241584 0.8499162552276374 0.4014634037512901 9 228 31
2.5832658628633762 0.8581870634243784 0.40675144115165307 9 228 34
2.552268348794051 0.8606575819058866 0.40432586639994983 9 229 43
2.56165613613537 0.899545398226526 0.4208870454260205 9 231 35
2.609333570809685 0.8681098099738234 0.3964857961575796 9 232 26
2.5312897543869037 0.9038420278813846 0.4156574253838059 9 233 44
2.5069933858347904 0.960272200383792 0.4363395406273214 9 237 44
2.5753723761006606 0.9615603708084866 0.43301132341276616 9 238 23
2.5419370531513286 0.9715803781025489 0.4357537935342126 9 239 32
2.492764993174104 1.0238928532376914 0.44341929433126515 9 246 41
2.4644530272668552 1.0319141383239268 0.44503864071553756 9 247 49
2.5306229618288416 1.0390067245474117 0.4458625717372031 9 248 27
2.513741948605591 1.0414175869445368 0.44753891369349663 9 248 32
2.4978885439798013 1.0479207932008499 0.4520018140949158 9 248 36
2.4736543716928336 1.0376585509887286 0.43730597816189043 9 250 46
2.49742792714545 1.0540419566597408 0.4446664435008636 9 251 36
2.525118794975171 1.0597194824336813 0.43699795653089635 9 254 27
2.544890701152789 1.0721862410618952 0.437991449581127 9 256 19
2.477569564592073 1.0966003892000882 0.45140696345360665 9 257 37
2.5141992489290343 1.082877903681491 0.4340335425529438 9 259 28
2.5201851653303153 1.1246131138269961 0.4448534339412118 9 264 20
2.388512525868141 1.1323671514234537 0.041716876515764056 9 360 88
2.371447322839233 1.1252076447357997 0.034294056894890845 9 360 94
2.5662632532770666 1.1528021996839681 0.03126522690087685 9 367 34
2.5975614730645913 1.1544793861904665 0.023822631908907432 9 369 25
2.3739253615650284 1.1587936177595257 0.025181028221399337 9 369 91
2.5578094387755064 1.1779975401372862 0.028610375379128028 9 373 34
2.37149885481365 1.2102311914637196 0.031307886760721715 9 379 87
