2.2739412104744874 0.8111576141064507 0.955541370002019 9 82 124
2.2452614271913993 0.808200699284042 0.954290541565191 9 82 134
2.5671686794603756 0.8267222752031673 0.9607470971097343 9 83 20
2.4931240827339836 0.8295320433415465 0.9608062768696286 9 83 46
2.3608269961140826 0.8146035935743237 0.9545788416548506 9 83 94
2.308258391018319 0.8042213288586868 0.9506914718660822 9 83 113
2.5104216678212805 0.8303101937689754 0.9582858000747916 9 84 40
2.383867946284477 0.81679202791591 0.9525234525969876 9 84 86
2.3509624937888596 0.8103177896006908 0.9500804468139308 9 84 98
2.283982508244687 0.8120467890123564 0.9468246648487131 9 85 121
2.467328372384222 0.828128509104852 0.9511318200446205 9 86 56
2.2577497573614584 0.8134725403134144 0.9439274304881573 9 86 130
2.2289057107503836 0.8105555897927459 0.9426454512202125 9 86 140
2.3221938077179267 0.815279349866235 0.9422305797058022 9 87 108
2.562708849602162 0.8332010011963575 0.9479608504311821 9 88 22
2.5391551189954096 0.8287501769544627 0.9462216703456942 9 88 31
2.417329812596327 0.8187950086090403 0.9414896965279276 9 88 75
2.388113271059598 0.839674283448917 0.9479471343779682 9 88 83
2.3451618116857023 0.8075795314221783 0.9369511401543178 9 88 101
2.2438424125449172 0.8020797129175858 0.9308322020973484 9 89 136
2.3741831485224214 0.8325098456338154 0.9394098188672878 9 90 89
2.3113184710104235 0.8183778650399511 0.9339590174264285 9 90 112
2.568830863461206 0.8304507891376021 0.9381828751487137 9 91 21
2.5517607452539597 0.838163793781767 0.9405235200341191 9 91 26
2.45318391211512 0.8376698736213783 0.939103969691091 9 91 61
2.445758974735643 0.816745552973642 0.932069625212763 9 91 66
2.3909130867210195 0.826454957880635 0.9345911835696084 9 91 84
2.259432233776464 0.8165930330910574 0.9296454874461806 9 91 130
2.4187353815367323 0.8222026251752752 0.9304958183595385 9 92 75
2.246507254722429 0.7959469931106038 0.9195145829247733 9 92 136
2.519337715011587 0.8231091821830507 0.9290738312861639 9 93 40
2.4634165088082822 0.828000530394257 0.9299802085073909 9 93 59
2.394144672121615 0.819524759119675 0.9262302871105144 9 93 84
2.3172005078471134 0.8128396626620147 0.9229800511705563 9 93 111
2.215868702025322 0.8018245942088089 0.9179583889078982 9 93 146
2.426199392099225 0.8207451185668948 0.9240074361306077 9 94 73
2.3576368260159297 0.8063075477970703 0.9182293163951901 9 94 98
2.3059906492515023 0.8127181791836069 0.9197028527976754 9 94 115
2.2944534563860515 0.7991744631447866 0.9149846385258746 9 94 120
2.457179243112909 0.8161762504687433 0.9198191039912403 9 95 63
2.531235483769348 0.819850450232289 0.9190174213125661 9 96 37
2.33352615454356 0.8013517742030516 0.910010992273148 9 96 107
2.2829603029836543 0.8017559406940036 0.909456821361974 9 96 124
2.5580467062501695 0.8333745681433653 0.9209688756827371 9 97 26
2.5326749211977946 0.8330978857560702 0.9205221739761112 9 97 35
2.466793574887553 0.8086320102173152 0.9112300794873521 9 97 61
2.4317787291321697 0.8181966660540545 0.9140197206170033 9 97 72
2.3930801752231967 0.8114731961372699 0.9111804866386077 9 97 86
2.527787828754392 0.8175891136713092 0.9120811281344781 9 98 39
2.3608667842359345 0.8027906492402834 0.9046394598939426 9 98 98
2.2305077519848715 0.7868254205977983 0.8941295728973331 9 99 143
2.3338043245853615 0.7972276052279974 0.8960534267138605 9 100 108
2.511734534248914 0.8280854983722554 0.9062941490750893 9 101 44
2.460916034038048 0.808020732959071 0.8985337240392692 9 101 64
2.3132334293555123 0.7981341015630281 0.8929150581903942 9 101 115
2.2591136140431503 0.7989353598494946 0.8924032384332528 9 101 133
2.211039220325245 0.79812422824762 0.8914160329003722 9 101 149
2.4121106277681763 0.8069943313394508 0.8943329148726551 9 102 81
2.222158696964693 0.7898599747167765 0.8854934563926894 9 102 146
2.391272507925954 0.8098707953988384 0.8919026809954522 9 103 88
2.336436338307071 0.8049054633903419 0.8893246194313307 9 103 107
2.243575162756066 0.7912580361503598 0.8831076366816695 9 103 139
2.4676479569949743 0.8113026506565624 0.8904344478978542 9 104 62
2.4390215232442087 0.8094393146615693 0.8893371949039818 9 104 72
2.349315704098094 0.8032770748901878 0.8857839844055605 9 104 103
2.503816373949912 0.8179174808401344 0.8902259057028958 9 105 49
2.4287756516998984 0.8160693743472909 0.8884102211270193 9 105 75
2.2619679159362676 0.7946643049706237 0.8781988151189284 9 105 133
2.5891042984420407 0.8154645850516962 0.887561635251561 9 106 20
2.5384984017187455 0.8198097115766521 0.8883316420979692 9 106 37
2.4536850109204464 0.8044123320663399 0.8814834040834776 9 106 68
2.363166613774833 0.8003104741652358 0.8785996618888485 9 106 99
2.2362471654353873 0.789337499375758 0.8726824473033419 9 106 142
2.3076516754139837 0.7971382819539474 0.8733989639320694 9 107 118
2.2124099341243384 0.7886888417899016 0.8688474090913507 9 107 150
2.5659081126175316 0.8124520451416064 0.8798760402761335 9 108 29
2.2958414477208335 0.7855123976177913 0.8657925761109162 9 108 123
2.3824129464814727 0.8120542466023464 0.8736319885777604 9 109 92
2.3379277867109405 0.8118809576554709 0.8728491621263075 9 109 107
2.216715714581149 0.7868056296271033 0.8617509541078208 9 109 149
2.423457929174384 0.8055384674663275 0.8687445657705106 9 110 79
2.324199567235507 0.7975651212828607 0.8641992571878645 9 110 113
2.3542823231874817 0.8106120899231404 0.8662827213441063 9 111 102
2.395146064750283 0.8050972360957476 0.8617337732695012 9 112 89
2.3342252581015277 0.8095652753971745 0.862365547751186 9 112 109
2.2687385351348337 0.7932456234022274 0.8552301920066916 9 112 132
2.2254922187435096 0.7958564691619197 0.8554711589541173 9 112 146
2.5226787977812917 0.813659223885624 0.863877898573259 9 113 45
2.4605947719180126 0.8153541018393142 0.8634552219631575 9 113 66
2.3093369706388396 0.8032410109109223 0.8563861604972254 9 113 118
2.4508159965382896 0.8112947252423441 0.8585940197639634 9 114 70
2.416088862627177 0.8108341287908967 0.8546262173807844 9 115 82
2.252273819228148 0.7914206885262212 0.8444928927820414 9 115 138
2.23248956807129 0.798318875182916 0.8467402835031126 9 115 144
2.45573371413842 0.8023308293041398 0.8456855862440111 9 117 70
2.4276986367782087 0.8062387035622556 0.8466703833940983 9 117 79
2.3124880655615256 0.7991052643935896 0.841920100840415 9 117 118
2.290561929713007 0.7889035919926051 0.8376614013170336 9 117 126
2.20735640364401 0.7899509718959539 0.8365821439539725 9 117 153
2.406943229576198 0.8177934770662156 0.8474773417174116 9 118 85
2.3619918486238625 0.8081015177805375 0.8429762614135413 9 118 101
2.330527487638022 0.8017974890209705 0.8400086369565458 9 118 112
2.2618192434614786 0.7965238675446598 0.8367655142073815 9 118 135
2.2349542119395043 0.7953005209806912 0.8325267686470317 9 119 144
2.3911092374773504 0.8151406892462911 0.8397315845017916 9 120 91
2.3638660767845403 0.805534610825724 0.8355339298825988 9 120 101
2.3234304411448323 0.7982738287458937 0.8319971858756299 9 120 115
2.3487434989124414 0.8078634754642049 0.8328961566483377 9 121 106
2.1975045742165604 0.8026752569515168 0.8280852565290513 9 121 156
2.400878178458074 0.8165284130257531 0.8339782027114455 9 122 88
2.2208375055150387 0.8115156859383914 0.8286558614504506 9 122 148
2.469768132656764 0.8081074169987712 0.8287501353727911 9 123 66
2.3698745066918523 0.8119099743636782 0.8283438648047323 9 123 99
2.2959267564043238 0.8053358339620509 0.8243752387448302 9 123 124
2.23345270770883 0.8119004589143601 0.8257566267549094 9 123 144
2.196978210093703 0.8126667262218761 0.8220676826192552 9 124 156
2.3391023651614447 0.829988544747176 0.8283449123239033 9 125 108
2.2437208939395044 0.8256949885863751 0.8248067373047747 9 125 140
2.43853786092042 0.827899067788477 0.8262105828901283 9 126 75
2.4195302414051394 0.8222687941904367 0.8236074739335305 9 126 82
2.357571950072498 0.8192445607571912 0.821198125437939 9 126 103
2.232645492609067 0.8397818491512579 0.8236396024026866 9 127 143
2.512498679105722 0.8548854132456223 0.8320004766192366 9 128 47
2.4602288404680612 0.8289762009960535 0.8205889257889833 9 128 68
2.3911871283605954 0.8314731252537202 0.8202113975219913 9 128 91
2.176425545442772 0.7798178235472386 0.7952555369485355 9 128 165
2.317788274493105 0.8399180686836236 0.8188738328410344 9 129 115
2.2633043251953233 0.8418405767316108 0.8185494150514199 9 129 133
2.1920163090297353 0.8179609671349439 0.8075105563761888 9 129 158
2.1829846740277388 0.7989469865258321 0.7996824322852621 9 129 162
2.4175556520283017 0.8368165684109115 0.8163904498613508 9 130 82
2.4566732275680057 0.8543076430634149 0.8210431820722022 9 131 67
2.2903473917870514 0.846169213242453 0.8143211583566022 9 131 124
2.200451382447115 0.8432818242300226 0.8113015982891487 9 131 154
2.3926872591930293 0.8446816986670125 0.8125715708293937 9 132 90
2.215797905977166 0.8469552089258021 0.8065412916336947 9 133 149
2.207812833104737 0.8411664523443529 0.8040013462348786 9 133 152
2.4589539222302976 0.8448546439142386 0.8075281540451626 9 134 68
2.2674206065839466 0.8479545201984515 0.8047517993743327 9 134 132
2.2408763168020696 0.8450683634885108 0.8030015742298495 9 134 141
2.43864525488579 0.8458262936339227 0.8042419569208561 9 135 75
2.3702078354517977 0.8567973675209393 0.8073191202113368 9 135 97
2.345117290394726 0.8509292848432652 0.8043551290213833 9 135 106
2.3312949252867075 0.8580513979912703 0.8070066127161056 9 135 110
2.203172270807302 0.8427992863422238 0.7913175029331101 9 137 154
2.3370469614828147 0.8539911946931902 0.7956258509397222 9 138 109
2.3065537201576465 0.8562533164406052 0.795904807087679 9 138 119
2.407614468111766 0.8586118169941326 0.7958517208303386 9 139 85
2.2416777596628785 0.8525191237934209 0.7896015786469031 9 139 141
2.2105751938655795 0.8407287481188974 0.7839409713305643 9 139 152
2.363843354889612 0.8583022349650007 0.7914697162010609 9 140 100
2.298753373475156 0.8557396241308022 0.7889267600136562 9 140 122
2.1799617123997046 0.8071081315443907 0.7656691515255964 9 140 164
2.25289102120393 0.8472190343161976 0.7809591734369496 9 141 138
2.380266681749252 0.8571197924922249 0.7847582748167135 9 142 95
2.282989621089709 0.8504516674230131 0.7796890872536971 9 142 128
2.4978021815663913 0.8689484338363682 0.7892442082632685 9 143 54
2.225126397315287 0.8535439284316173 0.7763527875527303 9 143 147
2.4537811136146344 0.8714875525105938 0.7860594494696994 9 144 69
2.4353769874618862 0.8649936140789654 0.7828302680709132 9 144 76
2.297562387508857 0.8570005251665997 0.7761811342100551 9 144 123
2.184773968010362 0.8275141501312777 0.7574279763870648 9 145 162
2.18272896093831 0.8034064778344705 0.7469310851354687 9 145 164
2.286800451925188 0.8559126412707538 0.7687862757703219 9 146 127
2.445020351857589 0.8773972598996427 0.7786096684676731 9 147 72
2.3953375997420054 0.8667468105448726 0.7727660525503941 9 147 90
2.3657755043258564 0.8661187016386049 0.7717862281471137 9 147 100
2.344260311816677 0.8683794670691907 0.7722619589439376 9 147 107
2.3319659160971464 0.8696713330295252 0.7725338051135513 9 147 111
2.2800324484098695 0.8611245397959815 0.7675566730053858 9 147 129
2.1747647939545605 0.7993658307728002 0.7380319205668002 9 147 167
2.407767500989342 0.876446269596058 0.7740168695421441 9 148 85
2.3037481462307365 0.8649928715761139 0.7664813448643131 9 148 121
2.2568421140589634 0.8587299492150231 0.762600758266281 9 148 137
2.429113102021103 0.8691658381956215 0.7647145044987267 9 150 79
2.3531726521315997 0.8641150069004473 0.7606157137185787 9 150 105
2.3992908058095357 0.8737981678228197 0.7594006675335664 9 152 89
2.270141166195058 0.8492856294335347 0.745216318420469 9 152 134
2.2308937428331475 0.8608405523526272 0.7494090228488746 9 152 146
2.1803786181347733 0.8159900922268744 0.7280830163289775 9 152 165
2.432847025501255 0.8728801942906419 0.7565018537707167 9 153 78
2.3745696087953925 0.8585896653222456 0.7486151060270626 9 153 99
2.3533691669957273 0.8589615529551875 0.7482497687722394 9 153 106
2.3093709560583364 0.8654405852090095 0.7500567388177157 9 153 120
2.2424134838622027 0.8520622465128596 0.7423619688772857 9 153 143
2.343120050673027 0.8654482761480318 0.7475432032275672 9 154 109
2.4117661034273814 0.8590070967774996 0.7430039114292796 9 155 87
2.395379610176633 0.8635070367883391 0.7446261228636878 9 155 92
2.3013262342358973 0.8409791951865369 0.73200725194587 9 155 125
2.2811135027619187 0.821804587867317 0.7227951449446453 9 155 133
2.179159005766687 0.8121451666336799 0.7158103896664476 9 155 166
2.4590496246964353 0.8714639122922629 0.7465194129640335 9 156 70
2.446241464889396 0.8654092486580165 0.7434314030362021 9 156 75
2.429502314687681 0.8431161552526405 0.7328449257560149 9 156 83
2.3394793468885178 0.8720020718467787 0.7436849763487714 9 156 110
2.266361601751232 0.8083740370200512 0.709298925236246 9 157 139
2.3670969457978135 0.8531037204175673 0.728969712293206 9 158 103
2.211406671455034 0.8648473684595501 0.7302907125838927 9 158 153
2.20828976889886 0.8328633565082457 0.7155088852506539 9 158 156
2.1979431237991056 0.8034854835871517 0.7017355692225467 9 158 161
2.616408053205833 0.8387663241135008 0.7255128290437973 9 159 22
2.329475485097599 0.8707610809969046 0.7327088570973264 9 159 114
2.2819005110680726 0.8139701526715668 0.7052351889007912 9 159 134
2.2408396836588937 0.8441073963073573 0.7180642473810469 9 159 145
2.5904273568419587 0.8459648829659119 0.7247573214724456 9 160 30
2.3273080776510877 0.8127311570061564 0.6988195595430601 9 161 120
2.303576239560906 0.8198265694224725 0.7014875705774848 9 161 127
2.2711498523083558 0.8103489555627961 0.6962033844409963 9 161 138
2.200208934334963 0.7984760709842147 0.6887702954313172 9 161 161
2.1736733654158495 0.8031050345741126 0.6902143303550402 9 161 169
2.5246312017205486 0.834216713701085 0.7106752182855983 9 162 54
2.4559218791244417 0.8120156568186208 0.6984311493907714 9 162 79
2.425886023236697 0.8188494168652705 0.7008157254627215 9 162 88
2.3860915404090517 0.8588874609625055 0.7184696216221219 9 162 97
2.3597038762016376 0.8662572113503142 0.7212036030460536 9 162 105
2.298855829177463 0.8156482367822246 0.6958826806471318 9 162 129
2.2643762159318133 0.8146742756331615 0.6944945592888674 9 162 140
2.560525608903538 0.8294141705804907 0.705944842648585 9 163 43
2.3325552182329456 0.8790854773006407 0.7230690503892722 9 163 113
2.187021790214553 0.8052877129285474 0.6844264135867288 9 163 165
2.5573163837367017 0.8241386831363615 0.6999054006405611 9 164 45
2.5055842964689807 0.8323271124973295 0.7023482830500075 9 164 61
2.4370947336560533 0.8266786633568914 0.6978006338868386 9 164 84
2.394023893239157 0.8568946759147418 0.7108770354828653 9 164 95
2.2669161625715852 0.8078603258482948 0.6842434682981304 9 164 140
2.6314760203890093 0.8364123379843984 0.7042966623766517 9 165 19
2.477423694576699 0.8186870386466936 0.6916283139813387 9 165 72
2.58219794060668 0.8341502314700147 0.6983982803093307 9 166 36
2.526544516248804 0.8372512931058516 0.6983211450191917 9 166 54
2.4586744673043874 0.8214925299050926 0.688924350860098 9 166 78
2.3805156767823448 0.8470066020228366 0.6954034110038442 9 167 101
2.212868122808202 0.8783426520292945 0.7056705676220835 9 167 153
2.206735933117507 0.8460589716100082 0.6900616230365719 9 167 157
2.629951756332487 0.8389793852213674 0.6951269880833566 9 168 20
2.527193322305557 0.8232790597902901 0.6846739882155105 9 168 56
2.3910840944300915 0.8649928000128175 0.7008475032266384 9 168 96
2.2457388165878087 0.8418888628963459 0.6856317161505228 9 168 145
2.566046411990026 0.8428493822218521 0.6917054471845796 9 169 41
2.5465836486800955 0.8385050623953194 0.6890540729375836 9 169 48
2.538190645624114 0.8366486249466503 0.6879189004793342 9 169 51
2.4750430433602206 0.8250284749566774 0.680510228896918 9 169 73
2.3339691743497353 0.8754505711982057 0.700799257575056 9 169 114
2.628945911562295 0.845258318299434 0.6912076527004659 9 170 20
2.3065207587354064 0.815309782044239 0.6674181365923573 9 170 128
2.203930789398453 0.8005583882864244 0.6573190191395553 9 170 161
2.1633805885352286 0.8102902312324831 0.6608657903237898 9 170 173
2.3236354157327437 0.8125609797932449 0.66297981844194 9 171 123
2.291033499323455 0.8159867118919708 0.663700692106666 9 171 133
2.615657275419424 0.8382574697975 0.6804637496314593 9 172 26
2.3458184119385157 0.8829904316062911 0.6944329908517851 9 172 110
2.5561778009785296 0.8453268258035853 0.6786850791872935 9 173 45
2.526686519219865 0.8184288904899983 0.6646176850998005 9 173 58
2.4173238792158465 0.8880960022509448 0.695582687568882 9 173 86
2.329939371341107 0.8763712855548664 0.6872558406141793 9 173 116
2.2937148038200212 0.8092761575521701 0.6532653151964853 9 173 133
2.5928836649327227 0.8241300865157333 0.6658267851062598 9 174 36
2.398340953152353 0.8227789667641106 0.6593885061465368 9 174 99
2.6153965801502657 0.8861036912670899 0.693626397694437 9 175 20
2.4333975477899403 0.8888998679827764 0.6895696590216348 9 175 81
2.362205120704689 0.8637248990597584 0.6749818422413545 9 175 107
2.319966272908117 0.8110158354141108 0.6476323631711829 9 175 125
2.264660307507741 0.8150129654811293 0.6479573254842793 9 175 142
2.2174798397264226 0.8915410783870668 0.6809286431476205 9 176 152
2.2095009578087765 0.8851302139870365 0.6775019159492114 9 176 155
2.2130578835895345 0.834917902692615 0.6526516755870391 9 176 157
2.603108540893253 0.8636063226232233 0.6751834171426996 9 177 28
2.5579642981202193 0.8411935764067691 0.6626263095569961 9 177 46
2.428205708794855 0.8720273487563319 0.6740804797984288 9 177 85
2.414814210631372 0.816406268565167 0.6459105367953051 9 177 95
2.330759035856582 0.8351958280667846 0.6527393415707493 9 177 120
2.2545101270460215 0.8368714369737091 0.6512624286634 9 177 144
2.201860786643829 0.8116265133462499 0.6370639233387845 9 177 162
2.4030395823076347 0.8158086431099953 0.6416272530756717 9 178 99
2.18471952376556 0.800770146776284 0.6274163961481984 9 178 168
2.61392683094705 0.9038333624012713 0.6887969089054997 9 179 19
2.5821741994120178 0.8529707955984478 0.6622145791819202 9 179 37
2.4526064507362877 0.8846518201966169 0.6741743102832172 9 179 76
2.207612668863396 0.8860055238035536 0.6673134287619328 9 179 156
2.171510107213814 0.8039839201446635 0.6249113677331753 9 179 172
2.1435754367295297 0.7933693569055706 0.6187078817671324 9 179 181
2.619601494078598 0.8948635451822835 0.67759746884964 9 181 19
2.434548635570894 0.8223629578689959 0.6350100268291361 9 181 89
2.3419402960053133 0.8942924575306601 0.6686348470150061 9 181 112
2.255576246750725 0.8267460987553292 0.6316451097665315 9 181 145
2.187680614133419 0.7915134264770962 0.611637356206382 9 181 168
2.5635898322998036 0.8601114017043681 0.6546776635975293 9 182 43
2.5538889075602977 0.8305143787174614 0.6392831315480002 9 182 50
2.46252037497931 0.8968454081826767 0.6702259867604223 9 182 72
2.4605953562043714 0.8763366307292506 0.6597095111505117 9 182 75
2.3153908862772408 0.8069492189226124 0.6197658563783828 9 182 128
2.2843106391099086 0.8156179785784057 0.6232076351490038 9 182 137
2.3893788630412107 0.8324531837742108 0.6278218202896679 9 184 103
2.325329387755111 0.8230087509269373 0.6209222698807337 9 184 124
2.167594994198697 0.8009438149107371 0.6045445533421734 9 184 174
2.576602615138821 0.9070186773969076 0.6686870335366831 9 185 33
2.481191193504105 0.900886711346208 0.662454852313417 9 185 66
2.2702541243602417 0.8135391050499801 0.610579719232446 9 185 142
2.2141302326324785 0.8984289619394596 0.6526030816532006 9 185 154
2.3977985734845237 0.8297508390217907 0.6193883325706957 9 186 101
2.3451248115933385 0.8935710014982492 0.6507706255857292 9 186 112
2.3395941916938563 0.8573875788159209 0.631832593888483 9 186 117
2.2097450025761334 0.8432342138695506 0.620292271937026 9 186 159
2.3413929514915033 0.8294030769782439 0.6137008631409676 9 187 119
2.2158586849238735 0.8945474257084747 0.6435240194682719 9 187 154
2.1960461813843883 0.8151160086925149 0.6015256284541186 9 187 165
2.1618561850771645 0.8034808884495557 0.5943539392872303 9 187 176
2.5600219561742428 0.9030747860050079 0.6557010577373678 9 188 40
2.4372084260281635 0.8193409154678273 0.6078959630960559 9 188 90
2.3651307932109544 0.8707601095017228 0.6324111442794283 9 188 108
2.2677297484156385 0.8174635655903628 0.6013520816860951 9 188 143
2.2063033861493935 0.8820804518578598 0.633116313194862 9 188 158
2.148804994199108 0.8049053708381047 0.5908837128518547 9 188 180
2.4079175960701424 0.8260134855260524 0.6030363667191394 9 190 99
2.337523891934628 0.9075219866836888 0.6436595242444306 9 190 114
2.342819715247953 0.8426757820613064 0.609653244634459 9 190 118
2.3018584313627155 0.8148351370926021 0.5936144208376961 9 190 133
2.2054351706742743 0.8419323456819059 0.6046894172778694 9 190 161
2.621345083259391 0.8348193024216992 0.6111439181947294 9 191 30
2.600186367263172 0.8557739339368762 0.6215265556688808 9 191 34
2.269547500765524 0.8164833954426935 0.5896504391254643 9 191 143
2.177159574387112 0.8422724720849362 0.5964749254477987 9 192 170
2.5844854356537867 0.8609163428132267 0.6165229898695833 9 193 39
2.536060347738805 0.9060580571582999 0.6389700986621394 9 193 49
2.4066900385561265 0.8261941277454998 0.5919524193798904 9 193 100
2.3331062592032805 0.8259155151253743 0.5893042090558364 9 193 123
2.1766175361793048 0.8841924264744703 0.6150908041946944 9 193 168
2.620117023978522 0.8438032985197683 0.6049595603528416 9 194 30
2.3324178774432953 0.8784796819396288 0.6137033859841761 9 194 119
2.301471695779753 0.8123794430372593 0.5772222318699352 9 194 134
2.342038890252061 0.9129773071385703 0.6289592002249113 9 195 113
2.3091510373655924 0.8231739935707814 0.57950386827727 9 195 131
2.2249027591019 0.8995284636935548 0.6176893292852389 9 195 152
2.2091109825279402 0.900299601971355 0.6175605557761957 9 195 157
2.1717064641870176 0.8438335951006144 0.5858884492143764 9 195 172
2.168506641059764 0.8042015371103515 0.5644523470333369 9 195 175
2.5534829742365774 0.9057896077130749 0.6288369201451892 9 196 44
2.519179262334066 0.9093941604483982 0.6295954228725266 9 196 55
2.3453737182428522 0.822963279882136 0.5768718186997849 9 196 120
2.3134080722194366 0.8343072343831255 0.5818930037241181 9 196 129
2.2720362014580555 0.8173608748228831 0.5713027413477215 9 196 143
2.6100424165022407 0.8519217125798642 0.5980440082102798 9 197 33
2.544618716010202 0.9075422213829922 0.6259361237054 9 197 47
2.469140371333152 0.8286167754147014 0.580483901520913 9 197 81
2.4458131638201697 0.8319542751926448 0.5814805488069825 9 197 88
2.413783747682848 0.8326609596563561 0.5807462700540921 9 197 98
2.3804025920362397 0.84857669357851 0.588215991667024 9 197 107
2.137707006236993 0.8146970663781878 0.5613668470881995 9 197 184
2.303533268848527 0.813291172595183 0.5625775116509295 9 198 134
2.168898782209864 0.8097312626631612 0.5559088763154642 9 198 175
2.471426649957566 0.835516520520807 0.5768494353654341 9 199 80
2.337626543793905 0.9044085652263276 0.6097989387306166 9 199 116
2.3235730503359835 0.8139078315268242 0.5598021479885423 9 199 128
2.158275422464984 0.8162421717899075 0.5552337786311262 9 199 178
2.586342673202458 0.8994488177674038 0.6123096072252313 9 200 35
2.3451504146646673 0.8329136699618713 0.5671844452375151 9 200 120
2.284703431490506 0.81452862199348 0.554936094198302 9 200 140
2.2553873459615463 0.8432291491421102 0.5696543719124606 9 200 147
2.5537074259363037 0.9151860182926685 0.6162388109806076 9 201 44
2.419009288770231 0.8349115647823333 0.5671483060191129 9 201 97
2.146931585191651 0.8087853955629818 0.5429935566278397 9 201 182
2.4739839968820987 0.8617973348050694 0.5802457502632892 9 202 77
2.448851451089223 0.8335836065564171 0.5637188835765008 9 202 88
2.35006681976423 0.8192799631746825 0.552237071625022 9 202 120
2.2760994968208035 0.8138288756043315 0.5465514852430592 9 202 143
2.4523432697030225 0.8632042092233068 0.5765368882453106 9 203 84
2.422114823168175 0.8293946743563416 0.5566452662519917 9 203 97
2.338368362974169 0.9104049788302178 0.5986379539248304 9 203 116
2.3286118872466073 0.8163237374699479 0.5459851233266224 9 203 127
2.1554289273395586 0.8028192494936333 0.5321915858913558 9 203 180
2.2883752822461574 0.8223935456289426 0.5440530657511622 9 204 139
2.249430087625352 0.865191266021859 0.5665170157740413 9 204 148
2.21048418409005 0.9299807590516402 0.6012552897374872 9 204 156
2.1608155916958354 0.8138055174065759 0.5345992794588031 9 204 178
2.6285633283496783 0.8816339052118181 0.5859060632031641 9 205 25
2.567060786008568 0.9408197628287458 0.6168112663079117 9 205 37
2.5553985287728493 0.8506580608252323 0.5658572526169244 9 205 53
2.4284820809279726 0.8850883799960105 0.5767968097747163 9 206 90
2.413927193067514 0.8102511818248213 0.5341518245260741 9 206 102
2.3939769369978823 0.8334141930069094 0.5464458889535468 9 206 106
2.328533894318883 0.8236129869921054 0.5385093434177699 9 206 127
2.2896982746855223 0.8215493311333968 0.5359109685052676 9 206 139
2.5746390527419027 0.9127040216101769 0.5941451654424074 9 207 39
2.2986377911706413 0.8277175805278425 0.5358562567666332 9 207 136
2.1423879501329117 0.81081638404301 0.5204889798884316 9 207 184
2.452102847466206 0.9106558939326608 0.5847840670221865 9 208 80
2.424481125870689 0.8531222622163634 0.5511176948978675 9 208 95
2.339485859837457 0.9172341788656926 0.5842936039772013 9 208 116
2.3373600721354624 0.9025674405356727 0.5758954802726722 9 208 118
2.6029182137117113 0.9271673967720331 0.5962276185056902 9 209 28
2.5942764754812537 0.8423789269651152 0.5438431397901955 9 210 43
2.522845013620226 0.8393968925488713 0.5394265846600065 9 210 66
2.457320385190247 0.8908556986493896 0.5663585166384634 9 210 81
2.409997577800999 0.9124340733236229 0.576898557673905 9 210 94
2.4094084129338826 0.8548124679738462 0.5439334736369345 9 210 100
2.119775148503603 0.8118310547120786 0.5083655204350468 9 210 191
2.3301166772935025 0.8291542751380543 0.522375669245425 9 211 127
2.300902165130591 0.8278588367906048 0.5205160563524054 9 211 136
2.2036210940820293 0.9646726763031792 0.5953291396921863 9 211 157
2.3378001137099864 0.9208891152509195 0.5716480911545498 9 212 117
2.174351354539076 0.8142256375518977 0.5038976728844295 9 212 175
2.6100267510092183 0.9053545588216472 0.5695070812848113 9 213 30
2.423988922336153 0.9135779497160905 0.5670684184243591 9 213 90
2.268006249023479 0.832398904769891 0.5140675918442674 9 213 146
2.1322975612914448 0.803972242183645 0.49237148811255915 9 213 188
2.541890762843307 0.833400232805934 0.5175465808713706 9 215 62
2.348501165799082 0.9223929177123855 0.5618689655161556 9 215 114
2.332976513045712 0.827536081971187 0.5059447172178761 9 215 127
2.3051374847404658 0.8200302171533382 0.5004773163801137 9 215 136
2.5026281669290746 0.8220895749218617 0.5016133405594938 9 217 76
2.405027306859516 0.9138780912668156 0.551693883057814 9 217 97
2.331791101519238 0.9311146903404031 0.5589212038430617 9 217 119
2.3484089387100537 0.847835678082409 0.5106313084880045 9 217 121
2.6281981270948154 0.9476338442012755 0.5767916727878097 9 218 19
2.4673646291241758 0.8441955570337585 0.5054598627098648 9 219 85
2.4555128255447807 0.8411135259574443 0.5031583651334175 9 219 89
2.435575055485165 0.8527288399533492 0.5092390676981416 9 219 94
2.386320703979827 0.9184879406843844 0.5462180148230937 9 219 103
2.368150256061017 0.9273209905489372 0.550721431644581 9 219 108
2.348477424145368 0.840243900085426 0.4983471302345206 9 219 122
2.2939512835620492 0.8347221417484048 0.4928875174411296 9 219 139
2.558468125527236 0.8425020760676318 0.5042446065374051 9 220 57
2.552342373684863 0.83363586109068 0.4987242625364774 9 220 60
2.486180962240769 0.8293490073071592 0.49350308111239927 9 220 81
2.142283690465497 0.8023739495955389 0.46357331847775396 9 220 186
2.541895643495892 0.821020443077271 0.48686845858848415 9 221 65
2.334765182105681 0.9291439363436438 0.5430094660707347 9 221 119
2.330562376279741 0.9218132203327509 0.538461868729107 9 221 121
2.269786056534921 0.8582489347239399 0.49804127996580116 9 221 145
2.1800883744276396 0.8046323469006975 0.4623850752974603 9 221 175
2.3757486047179714 0.9188275365467709 0.5347627329922305 9 222 107
2.3266583128415346 0.8428975935988339 0.48724457500622886 9 222 129
2.302619366575306 0.8600884108321853 0.49656610552239333 9 222 135
2.2292041149052277 0.9273249425236658 0.5338665484090059 9 222 153
2.5556528019825064 0.8560161975685765 0.5006038281033598 9 223 57
2.3234611089370802 0.8942014977477442 0.514034071199243 9 223 126
2.2790608977213855 0.8790479807648393 0.5030901115909348 9 223 141
2.452512550451274 0.8514514829378521 0.48970842783160795 9 224 90
2.4126541423371157 0.8952341663437182 0.5145078393391508 9 224 98
2.5477274005377533 0.8802494811842037 0.5072178121890598 9 225 57
2.4986934970258585 0.8415518958344743 0.4817102306563208 9 225 77
2.14116743860403 0.8008777455678591 0.44216749128893107 9 225 187
2.5245419271085794 0.8690170816575478 0.49557556340019193 9 226 66
2.188084761811201 0.79186089984461 0.43452082022002125 9 226 174
2.1790768902510704 0.8039725764837542 0.4415171427256941 9 226 176
2.1487151709893237 0.8217634485994569 0.4510770292263424 9 226 184
2.102740249989565 0.8059818768990834 0.4395450694065042 9 226 198
2.505940870855533 0.9036642299051474 0.5120923179793127 9 227 68
2.4741853272782963 0.9052852272190419 0.5117458782676781 9 227 78
2.3935664304204805 0.9343852836832656 0.5223747757517274 9 228 101
2.3705965757921748 0.9385128095409909 0.5239341685653311 9 228 108
2.3380810839806045 0.9436434704857386 0.5257046913534764 9 228 118
2.294666967287079 0.9430634968644624 0.5235100828634175 9 228 132
2.1087736779232196 0.818626511780203 0.43929346794569013 9 228 196
2.1450922736451603 0.8090218470424573 0.43081087443608634 9 229 186
2.134421902092081 0.8109990213829454 0.431573977719121 9 229 189
2.2782568907838296 0.9380403864776898 0.5121464832640462 9 230 138
2.267850389469758 0.9288729286748412 0.5060326926957479 9 230 142
2.647654249818782 0.9249085965431416 0.5161127846706626 9 231 20
2.3786590431949786 0.948903344042352 0.5194101283648623 9 231 105
2.3429109128171834 0.9441184104407943 0.5148995411280691 9 231 117
2.330329896983317 0.9445862267947547 0.5146475967829774 9 231 121
2.3060531111981044 0.9420123757290222 0.5120037481284567 9 231 129
2.149012273574403 0.8116039580390049 0.42429834278395395 9 231 185
2.4445906895860308 0.9556661818690451 0.5227186242796968 9 232 83
2.416695519854639 0.9568910000202395 0.5222723337432083 9 232 92
2.400470328867633 0.9406790786486072 0.5114684761633349 9 232 99
2.3620643030070174 0.936242712024401 0.5032332719376378 9 233 112
2.3224652297186648 0.9548916509509779 0.5131698728756401 9 233 123
2.1036892728354695 0.8193643945967599 0.41886897129103473 9 233 198
2.4111987804468007 0.9405074933883186 0.5042510681398136 9 234 96
2.1703686373211295 0.8159865768755854 0.4155128195922597 9 234 179
2.136893824812113 0.8084372629479066 0.409305123179581 9 234 189
2.6311520621116746 0.9616701876978746 0.5234898960180765 9 235 21
2.38193846767132 0.9368363228750067 0.49684629610159226 9 235 106
2.3334893865198665 0.8347840687356343 0.43039415789675517 9 235 130
2.6027561042719736 0.967213651705185 0.5220347858029919 9 236 30
2.407530204628375 0.8874987429610559 0.46294428434931145 9 236 103
2.383028355296722 0.8832781485683556 0.4591872479405674 9 236 111
2.3043345789533043 0.8329385974184802 0.4238500800114162 9 236 139
2.278095975339616 0.8441897519373724 0.42980380795415707 9 236 146
2.10556242490138 0.8139034984096165 0.4029898093334996 9 236 198
2.346916566459338 0.8269642928712897 0.4178519097185873 9 237 127
2.1766478977653096 0.8075239477738236 0.3979096796503716 9 237 178
2.098290461261646 0.819151322253155 0.4017974396096917 9 237 200
2.628750417145116 0.9789186125184306 0.523245557239193 9 238 20
2.506945741555794 0.8383191353375812 0.4281538959220206 9 238 78
2.6115033031178054 0.9798883079221441 0.5194018056702109 9 239 26
2.5985280340083223 0.9626274552814826 0.507771385341627 9 239 33
2.4650228889980195 0.8572909930979458 0.43434399915591304 9 239 89
2.3411445644566236 0.8406782921197105 0.4181237252646839 9 239 128
2.4349837131689958 0.8513085967882816 0.425106706793823 9 240 99
2.3979958513385498 0.8315181286031323 0.410716515253025 9 240 112
2.383493280931532 0.8237401473971007 0.40506248730474703 9 240 117
2.3135332270653075 0.8327826893635215 0.4076957456842316 9 240 137
2.3019694365287675 0.8246961097444878 0.4019768667265462 9 240 141
2.285956247702208 0.8348348611256091 0.40776240356051696 9 240 145
2.1446528549908543 0.8200861537943309 0.39187663269579476 9 240 187
2.0873325442869515 0.8032777230046515 0.37847912729622957 9 240 204
2.6033949069937856 0.8557508375437761 0.43159380800519287 9 241 47
2.5966124835475317 0.8488615615844948 0.426842442602567 9 241 50
2.52814446472781 0.8408520041407948 0.4185536322831298 9 241 72
2.4116890886268467 0.8328168060335832 0.40805828968161073 9 241 108
2.590958954595356 0.8411831429995593 0.41757717292955565 9 242 53
2.571278807551411 0.8575944129373199 0.4272951428805607 9 242 57
2.3743246062720864 0.825135389623135 0.39724917010586713 9 242 120
2.177182687310685 0.8180078028847166 0.38358875868332976 9 242 178
2.5587166250679845 0.8506485612982013 0.4181724880587603 9 243 62
2.552305329077317 0.8420517871776763 0.41229185446245165 9 243 65
2.5478546320239692 0.8366199548370945 0.40855775444228426 9 243 67
2.4886810582746266 0.8453661169403381 0.4115086598059454 9 243 84
2.340553986328996 0.839861498568286 0.4010965366672161 9 243 129
2.284104788643553 0.8500070188268709 0.4050822427621037 9 243 145
2.142832130542516 0.8176562093776312 0.3775462801755476 9 243 188
2.0943779781888963 0.8126342839140912 0.3720476870404732 9 243 202
2.6481414829462486 0.8481618885869926 0.4166410349958738 9 244 35
2.640197811922936 0.8515220959563972 0.4184635239032015 9 244 37
2.4812962768171523 0.8404387356006195 0.4038619121242686 9 244 87
2.440343649720299 0.8439000720506142 0.4042184620222682 9 244 99
2.6804686389203907 0.8499817101000675 0.4152886450522175 9 245 25
2.625728602969459 0.8498475065463953 0.4126462876398864 9 245 42
2.5906246644182493 0.8484908106813842 0.4101201021496108 9 245 53
2.5556571923066445 0.8378701289482422 0.4015366190550733 9 245 65
2.4624170444215108 0.8419859836481074 0.39575491957154973 9 246 93
2.405975167824251 0.8411971507762446 0.3925881132584792 9 246 110
2.3356028486078975 0.8653905357126186 0.40518104797744714 9 246 129
2.2911197902839375 0.8835037327415314 0.4149941278620033 9 246 141
2.130643996315873 0.8138525778342633 0.3617026698404924 9 246 192
2.6980354561170268 0.8577076616095964 0.41310663161726513 9 247 19
2.4947359006836143 0.8648069797308782 0.4081958634416858 9 247 81
2.431334771881897 0.8580452332372381 0.40074513027327585 9 247 101
2.1123322679653707 0.82192903474355 0.36187553300476694 9 247 197
2.463111372036976 0.8733411168299647 0.4082662956063814 9 248 90
2.3603565177726846 0.8992231732325173 0.42052369065330963 9 248 119
2.1834898919200327 0.818080450973558 0.35842023058025174 9 248 177
2.1477318827213607 0.8226758023187883 0.3597655906763102 9 248 187
2.6164599064387555 0.8574084244613795 0.40092107922649345 9 249 45
2.4660754524608253 0.8949750660531481 0.41870724949362104 9 249 87
2.3872442057553545 0.9091182355859659 0.42434369944970385 9 249 110
2.6831826839558817 0.8547628074158824 0.39827374310499297 9 250 25
2.648294933133268 0.8534118746097681 0.39569936522763416 9 250 36
2.5894586370983976 0.8621026307799806 0.3986731814929543 9 250 53
2.4285462494109455 0.9224909308370413 0.4312284626012637 9 250 96
2.181981402053322 0.8121065092830999 0.3457851727029819 9 250 178
2.144838553604269 0.8243709163789099 0.35218284335386274 9 250 188
2.6633739495734305 0.8787434163333236 0.4092893165389706 9 251 28
2.5335347906546337 0.8990682790934994 0.4166329608053989 9 251 66
2.286917978243174 0.9383455325838557 0.43103144130730553 9 251 139
2.6070186480560147 0.8856622327325261 0.40716904350219973 9 252 45
2.2608659810027776 0.955405653359698 0.43724453152310017 9 252 146
2.100711809758588 0.8178958853319969 0.33708616926120016 9 252 201
2.6513567689194186 0.9020019225877007 0.4163071260542135 9 253 29
2.570136649015338 0.9072031220149774 0.4158550949491424 9 253 54
2.460595184882709 0.9545460226617766 0.4424426589017949 9 253 83
2.4066573636993436 0.9568804628077507 0.44138737826948593 9 253 100
2.3477310005510055 0.9539058061675532 0.4365084393516041 9 253 119
2.318233556546018 0.9596255562921223 0.4349849288015899 9 254 128
2.1163032822287593 0.8135378009093508 0.32619918975553364 9 254 197
2.371782848974701 0.9724142468304182 0.44236096920119095 9 255 110
2.142996703694829 0.8276755629673036 0.33274785393639106 9 255 189
2.59971518813949 0.9601974093473844 0.44140837075150663 9 256 38
2.2992232340900496 0.9759932781002059 0.43729226497558904 9 256 133
2.086877978920251 0.8272277099599663 0.3253224650283113 9 256 205
2.6492769997275176 0.9750746668063779 0.44631453644375263 9 258 20
2.3972720942972208 0.9866402031787389 0.4416405023577197 9 258 101
2.3646466391719687 0.9817825631152599 0.43666956367573295 9 258 112
2.148174343119643 0.8255544578305891 0.3185015150999948 9 258 188
2.1068028908437313 0.8166444771240344 0.3103086714460559 9 258 200
2.6361976518256234 0.9599787671867943 0.43138641212429896 9 259 27
2.593493523151236 0.9934333656541687 0.4523045492991451 9 259 36
2.343669888875651 0.9915444704976459 0.43842524910412095 9 259 118
2.3065397212192345 0.990480248298544 0.4358221941598044 9 259 130
2.1822899745837625 0.8148343067987922 0.3084537555730542 9 259 179
2.0928663724683276 0.8167819206433831 0.3052948518007754 9 259 204
2.264169659757524 0.9991758152841943 0.43577400960696067 9 260 143
2.4101788755572136 1.0004573587825958 0.4401728415681567 9 261 96
2.1873751071701335 0.8116520981498885 0.2976889417631321 9 261 178
2.4529903128239576 1.0026511355992995 0.4400054110578193 9 262 82
2.1119997061067246 0.8166101010046967 0.2928619026320929 9 262 199
2.1507134699418518 0.8235967455839621 0.2952949426885674 9 263 188
2.0932175072243355 0.8263429058908669 0.2942603671247448 9 263 204
2.625614271291905 0.9986856154703192 0.43837689719204853 9 264 26
2.3783100209479358 1.0197342689098492 0.4403775365222302 9 264 105
2.327474913564989 1.0258988493620675 0.4420795278713756 9 264 121
2.271947565413357 1.0144524111138917 0.43117077931420544 9 264 140
2.1871977408706003 0.820922062598022 0.29087409916830986 9 264 178
2.603676308039141 1.0027162890272796 0.43621849248910394 9 265 33
2.296688334373761 1.0283981369409325 0.4383713835015344 9 265 131
2.1168880132615286 0.8191393234087079 0.27706010293571315 9 266 198
2.4187433066161916 1.0321601640558624 0.4396788790503712 9 267 91
2.1671402480179887 0.8215973420348941 0.27696400407703137 9 267 184
2.635009525127702 1.0299932258752156 0.44569075629398225 9 268 19
2.278563863872464 1.0453312467994949 0.4378116060234021 9 268 136
2.1997025580420435 0.8218054065162328 0.2743607831689929 9 268 175
2.1139731722492843 0.8201650069013613 0.26866792641242676 9 268 199
2.0955894255091128 0.8229157935167741 0.2696581008923131 9 268 204
2.080191749531972 0.8310866640694055 0.2746683176378104 9 268 208
2.247906303659156 1.0600925932608294 0.44287396050070305 9 269 145
2.1616399620426967 0.8171580067933113 0.2645472747603068 9 269 186
2.369114404895872 1.060507900573941 0.4457863024339568 9 270 105
2.1925645387250206 0.8273514575209657 0.26900953319121923 9 270 177
2.081156874236948 0.8292510405494418 0.26443336022864905 9 270 208
2.342899776383836 1.0600619144721475 0.4402375378212977 9 271 114
2.2326554237970693 1.0773601172131053 0.4467916967657659 9 271 149
2.617786341655033 1.0508709415567212 0.44076146107633263 9 273 23
2.242187571404464 1.0797508191271274 0.441383815947582 9 273 146
2.310617140241004 1.084017926440269 0.444381233638105 9 274 123
2.106344766899767 0.8142675202550405 0.2368108513040066 9 274 202
2.3661439134215976 1.0888056806229902 0.44710490413007054 9 275 104
2.4019784372508837 1.0810337967312755 0.4395801028637534 9 276 93
2.0665156129083724 0.8176302359205629 0.2279195670292138 9 276 213
2.279606449227481 1.1053006880039444 0.4468717704147478 9 277 132
2.0877942907986484 0.8263401303596942 0.2309047863440854 9 277 207
2.2235563952868906 1.1055729248036732 0.4401691267029002 9 278 151
2.385329225111421 1.1177489013189885 0.4544098431568666 9 279 95
2.2782336541895383 1.1144452923714963 0.4459838349808438 9 279 132
2.6027289463676646 1.0949355488455774 0.4458788686908517 9 280 23
2.3392078915420638 1.1185868525927412 0.4487000984485492 9 280 111
2.311014901080076 1.1150871034488528 0.44451453131671226 9 280 121
2.224870993314938 1.116868888002284 0.4410091934391116 9 280 150
2.270808548652132 1.124199371597005 0.4452703041547623 9 281 134
2.324890319609685 1.1330985871426131 0.4474756646236955 9 283 115
2.341663372035776 1.1369992421475608 0.44762196521497355 9 284 109
2.3851859166306593 1.1380796640373494 0.44719129014087167 9 285 94
2.2408815714437615 1.1460154750390394 0.44490681488016914 9 285 143
2.366659007701193 1.164132572932811 0.45479735712356906 9 288 98
2.293034419584816 1.1526638951753625 0.4417201771054553 9 288 125
2.349145794818412 1.1835735985860703 0.4502834754628322 9 293 103
2.324973203666465 1.1797497784929596 0.4458582864722951 9 293 112
2.361451747622168 1.2116239463523877 0.4436681636796831 9 301 97
2.3311771288242302 1.228976254336724 0.45204526108749277 9 302 106
2.075489216913144 1.0138029573775458 0.03237689709335756 9 352 212
2.183642588853051 1.0078624501199192 0.02535281502861486 9 354 182
2.1358062080052536 1.0187912465684819 0.032077556098046855 9 354 195
2.1202630640788938 1.0278021800379709 0.03950487522740942 9 354 199
2.1082187627869016 1.0143123731722439 0.02560391421477659 9 354 203
2.07915918350752 1.024993744544085 0.0237534020265735 9 356 211
2.1488465553201075 1.032869586224571 0.03202403248624219 9 357 191
2.18855168393238 1.011566323360523 0.009586567489307196 9 358 181
2.098382045945753 1.0532938415886368 0.02835972021523747 9 361 205
2.1933997937433443 1.049633735017519 0.027601539545985432 9 362 178
2.1913343302482993 1.064650274838672 0.03255390141531045 9 364 178
2.1670180170686657 1.07105176763422 0.027198803497224144 9 366 185
2.146076934507389 1.0725258410950747 0.026936136650722142 9 366 191
2.1312604483856665 1.078441090671772 0.03161814242538119 9 366 195
2.105147990575362 1.0688358403117086 0.01985770430512357 9 366 203
2.1078067006960706 1.0796708238799768 0.021157905611179473 9 368 202
2.1036571173326846 1.0897382029069353 0.02120361888455702 9 370 203
2.171174804274379 1.0975514374390853 0.029966980406513244 9 371 183
2.2481634837657243 1.109985906946556 0.029916647076366765 9 375 160
2.184354705704089 1.1095118284810013 0.023939649110856553 9 375 179
2.138219936704553 1.120820661697233 0.03160890580959408 9 375 192
2.2940424707679226 1.1175241926104076 0.03203161024000045 9 377 146
2.179742890335554 1.1254233932806212 0.020632100349750715 9 379 180
2.3494223662870364 1.126592621228162 0.03190132248343458 9 380 129
2.2626821268936697 1.1300016711526863 0.027850891405587275 9 380 155
2.1463112159914743 1.1443691895692405 0.03266216688710477 9 380 189
2.1322968631021797 1.1479812384723964 0.03521010773431121 9 380 193
2.321599100537514 1.1360809477576832 0.029813710284197326 9 382 137
2.2379631858039652 1.1406014855080997 0.027169319149868976 9 382 162
2.4513787675901506 1.138506759129656 0.03910847541805573 9 383 97
2.420324808142482 1.1397764886755708 0.028139775224942154 9 385 107
2.302627951433597 1.151435402032841 0.02998897867375594 9 385 142
2.463666578265605 1.146264408764444 0.03416698318357336 9 386 93
2.3547126204656514 1.1534680947089733 0.03204771620576774 9 386 126
2.2718089965864667 1.1586419207568917 0.030107126893122782 9 386 151
2.3832148905894734 1.1572570483549174 0.03389485578184148 9 387 117
2.241459976886052 1.1643802123331648 0.02871112780927554 9 387 160
2.1602863324615686 1.1750294195046396 0.032774577886724554 9 387 184
2.449348523932102 1.154256153122145 0.0318996824664044 9 388 97
2.2729637712585937 1.170673409804839 0.03352685850217063 9 388 150
2.2534811403467536 1.1706037634438824 0.03168471064612444 9 388 156
2.474326730911016 1.15768800961132 0.033100401801178014 9 389 89
2.417201442698097 1.1566439986613046 0.02677263575523181 9 389 107
2.397931521149291 1.156554839292248 0.02492143673446967 9 389 113
2.3168041224323663 1.1671935110992417 0.028992559985453248 9 389 137
2.157913809463434 1.175433424367665 0.02339680100804542 9 389 185
2.4602244407691867 1.1631039252069326 0.03290109537664554 9 390 93
2.444377470910985 1.1729141337845697 0.0373210209503263 9 391 97
2.320275708187052 1.1810350090835509 0.034731100918477864 9 391 135
2.239713238036919 1.1803644041267938 0.026606689336501788 9 391 160
2.139967374589682 1.188034340335523 0.02576420602242324 9 391 190
2.4172671523367875 1.1712579419031677 0.028274117885545458 9 392 106
2.3086969122805296 1.179157134790619 0.026857574808130336 9 392 139
2.2797499880660164 1.178689698383593 0.023680449599042586 9 392 148
2.2320435329802635 1.1872116901930712 0.028552487516822156 9 392 162
2.4532967874030636 1.186113193818358 0.043046351753784684 9 393 93
2.214734464940755 1.2069754669915933 0.04373194569505956 9 393 166
2.263194422058234 1.1959872001483163 0.031468383474674955 9 394 152
2.162909511628178 1.195326068630631 0.021424517980204394 9 394 183
2.398841308239239 1.1842462257901603 0.02645859669079509 9 395 111
2.376581849842229 1.1863035811761724 0.021866248267447208 9 396 118
2.314366909790701 1.2005194327013526 0.031703512108965715 9 396 136
2.156579111229613 1.2150052694275761 0.03288470073158156 9 396 184
2.424222536580292 1.200647674880103 0.027940977861856675 9 399 102
2.343184709940722 1.2063821699680362 0.026638548392197814 9 399 127
2.2090854120143257 1.2176922386851659 0.02650938176948614 9 399 168
2.4596859760291268 1.2077430156378202 0.03448006872231524 9 400 90
2.3222426126488713 1.2260493154189214 0.03711525171951724 9 401 132
2.3064345615331177 1.2263237880438365 0.035911848452852 9 401 137
2.2960748337096257 1.2190926815431917 0.026823176432734464 9 401 141
2.2426622079435115 1.2281716947669057 0.03188660317119707 9 401 157
2.2134218205644887 1.23055086408071 0.03175663185787991 9 401 166
2.430610972300994 1.2143664196040844 0.029656279741990588 9 402 99
2.2775887481164974 1.232229767953044 0.030306474855225085 9 403 146
2.1619512530748493 1.2367751525783266 0.024290273544820717 9 403 182
2.399579562762332 1.2260287557087362 0.03034161802154345 9 404 108
2.223903218691424 1.245869333584914 0.03578770284722732 9 404 162
2.3411466453420835 1.2364123046705282 0.026970933655283247 9 406 126
2.323004399262235 1.2438272915514428 0.03364191268625949 9 406 131
2.289232367995555 1.2418673338797157 0.028118830450446275 9 406 142
2.262032906861132 1.2488568913046303 0.033422643254684914 9 406 150
2.160964328439521 1.2484596526262788 0.023117752404005376 9 406 182
2.228485914485683 1.2589662312424905 0.03694757502723456 9 407 160
2.194538448957947 1.269409673381149 0.04554995602125422 9 407 170
2.317163217604235 1.2562192881310834 0.03779024763085692 9 408 132
2.290499771025369 1.2521541568516377 0.030513565339751247 9 408 141
2.2114315088387544 1.2542823184273697 0.02518228864925809 9 408 166
2.322502912592931 1.2650342724335557 0.03433977594205251 9 411 130
2.192785732391008 1.2855031296499786 0.0451177294527918 9 411 170
2.3630232774123376 1.267690214508727 0.03204504370213357 9 413 117
2.3512894193735803 1.266195387565447 0.029129048666993285 9 413 121
2.258132561827689 1.2773479858095187 0.032776599676456186 9 413 150
2.2878990847778273 1.2732452340145184 0.026257366244057945 9 414 141
2.605240491350611 1.3258989124017606 0.03825676856778992 9 432 32
2.589818989981898 1.340162590007641 0.03577597229469531 9 436 36
