2.272885085995669 0.8218644611565868 0.41668386366458887 9 253 153
2.2576327425269858 0.8404073547227078 0.4268660558868256 9 253 157
2.0786200057495674 0.8110780693671646 0.38486218230976466 9 253 211
1.97687635321975 0.8045336981286249 0.36761060348946084 9 253 240
2.634300967685545 0.8951340630674443 0.506935154000711 9 254 29
2.4752594703208786 0.9610887202847944 0.5298706752338921 9 254 78
2.4498125460781703 0.9605251802451553 0.5262432655595968 9 254 87
2.438410360515323 0.9603886834944924 0.5246940602618106 9 254 91
2.3650233822344675 0.9351262242610392 0.4987167006720199 9 254 118
2.3372942824512806 0.8288112296766064 0.4253787816331951 9 254 133
2.292091006735833 0.8290293454451645 0.41973544414409547 9 254 147
2.2050746769957703 0.9570794124637025 0.49265223060695784 9 254 170
2.0857675198285355 0.8208530523074147 0.3879566154406191 9 254 209
2.4141610235285578 0.95617362672316 0.5151058972922302 9 255 100
2.3575708633851353 0.826380015591444 0.42231401864612894 9 255 127
2.03421510970546 0.8167137418974186 0.3743843421241815 9 255 224
1.966875631202926 0.807195647249725 0.35945795107743983 9 255 243
2.589148348558086 0.9589992910492775 0.5358311554210319 9 256 38
2.42929602410084 0.9436479547498648 0.5050499471947869 9 256 96
2.283108179500659 0.8321276777785609 0.41243220327668384 9 256 150
2.2351408959480357 0.9423401183219751 0.4791294510896964 9 256 161
1.9957289218206766 0.8106950964564115 0.3611719946796157 9 256 235
2.5261994695004524 0.9773680586938613 0.5362322772229869 9 257 59
2.481239330197581 0.9682489835340444 0.5243535723496154 9 257 76
2.2058939048392063 0.9638433684360921 0.48575258572159274 9 257 170
2.5142036281936284 0.9637939826566986 0.5219963584487903 9 258 65
2.4428805506508304 0.9535066207226668 0.5058636854103236 9 258 91
2.420056361837335 0.8263505136362868 0.41817496221163264 9 258 108
2.3493857220178533 0.8294622839972268 0.4110545190715904 9 258 130
2.2573444381008336 0.8387890314436193 0.40529473327270504 9 258 158
1.9602604753812298 0.8026735810329908 0.34258400726029725 9 258 245
2.623618756950729 0.9541435106463592 0.5261545934511609 9 259 27
2.4895496002028223 0.9639252704615424 0.5151844979575475 9 259 74
2.428797710055681 0.8331129787850446 0.41977048817804663 9 259 105
2.391155103491621 0.8317834195347515 0.4139646565616175 9 259 117
2.125321369663875 0.8255055461770484 0.37504441297429625 9 259 198
1.9967067526486122 0.8130050352825715 0.34988581120270745 9 259 235
2.5735082867488543 0.9748516211165756 0.5298283894055786 9 260 43
2.5478064091094854 0.9777586330236885 0.52840907367925 9 260 52
2.438636343676713 0.8202122120755655 0.4083451856937945 9 260 103
2.300988138520584 0.8375257063381756 0.40191506707062263 9 260 145
2.63997454183094 0.9666524472047144 0.529418491856708 9 261 20
2.5149534511851996 0.9189091895486896 0.48079301653366 9 261 70
2.3378163245493213 0.8332893515661246 0.39978830347624705 9 261 134
2.0258615395131576 0.8251084663147834 0.35320316831505405 9 261 227
1.9538183537496796 0.8024112160093027 0.3284264861266406 9 261 247
2.582420795805937 0.9695305448477873 0.5201253905710065 9 262 41
2.4716334240616664 0.8464242117768923 0.4222373077925621 9 262 91
2.3937276085517922 0.8292217562055739 0.40030668750533716 9 262 117
2.290129023988467 0.8545163613461821 0.4037156188721056 9 262 148
2.1233349287246996 0.8215934692975959 0.35940470196717866 9 262 199
2.1061148729026113 0.8227111080537695 0.3578840747475176 9 262 204
2.0923906760428554 0.8188774898477851 0.35347760016804464 9 262 208
2.0715666956434693 0.8182310620289992 0.3502877237181654 9 262 214
2.5518253733037657 0.9726171899654332 0.5144971114838284 9 263 52
2.541182656150183 0.8941039635523427 0.4597991488137638 9 263 64
2.064989129415482 0.8106387591474125 0.33995231269154114 9 263 216
2.0124297888181126 0.8242861103975858 0.34223882142322903 9 263 231
1.9799768000331468 0.8109630956388683 0.32888956910388223 9 263 240
2.593971026436664 0.9729256349470528 0.5166438435729552 9 264 37
2.5642302034665327 0.8590490191341655 0.43511022332956784 9 264 60
2.4670669222171155 0.8459983512834812 0.4132733859342823 9 264 93
2.2894679842017505 0.8911483831817615 0.4203637887239233 9 264 147
1.9652694990310184 0.7992534356227121 0.31456733599891784 9 264 244
2.536319666514268 0.854157442495949 0.42406639955865777 9 265 70
2.508931542883843 0.8540780356138635 0.4203481292118245 9 265 79
2.499216660836227 0.8561340841995184 0.42045416853211925 9 265 82
2.457818521204917 0.8355163285178562 0.4008198202199398 9 265 97
2.3620268540247067 0.8566290311502955 0.40243931716630743 9 265 126
2.348097796269373 0.8637739810022576 0.40546080431219367 9 265 130
2.3199795263867347 0.8604914279173381 0.39945490296944186 9 265 139
2.218454893069375 0.969276121380584 0.4602477178101694 9 265 167
2.203660374357757 0.9631737420109472 0.4540963858269811 9 265 172
2.0020944745430245 0.8136093203977666 0.3248755414338187 9 265 234
2.608832402557264 0.8464868484926928 0.4245403640343073 9 266 47
2.424210979716654 0.8521851246419885 0.39957817096573645 9 267 107
2.385116270375115 0.8587841134342475 0.3988513084811065 9 267 119
2.2394314257413983 0.9549417006599159 0.4454319146364272 9 267 161
2.087294081999694 0.8271772586456458 0.33692349750945993 9 267 210
2.6441441250484643 0.9722788418985129 0.5082811379485537 9 268 20
2.6526645591763973 0.854195312860732 0.42781051621737864 9 268 32
2.5013870313045485 0.8569323828433764 0.4092227906779007 9 268 82
2.0317500057384006 0.8283340269568109 0.3258757767349263 9 268 226
2.0140823188741726 0.8270538744129292 0.32259906168612584 9 268 231
1.9778527306192295 0.8121347061739606 0.30738162902030486 9 268 241
2.6258166001316274 0.8574843106347052 0.42247653102478133 9 269 41
2.534442454669998 0.8509191453234766 0.4055028349123475 9 269 72
2.487719746962021 0.8532871748413096 0.400795451674254 9 269 87
2.4505937685831904 0.8661579963213217 0.4046789094721057 9 269 98
2.5699810606390523 0.846886224281401 0.40349637572303365 9 270 61
2.2711889746850638 0.9593663399972676 0.4410465601483169 9 270 151
2.214081380490069 0.976460439927177 0.4451569204347561 9 270 169
2.0640582712421813 0.8195815792687464 0.3154508666144942 9 270 217
2.046359388203668 0.8099730156534775 0.3063453712488746 9 270 222
2.516477819184258 0.8666964193193356 0.40596339562538564 9 271 77
2.309524560832534 0.9513467689091284 0.4367707920953614 9 271 139
2.1097826026053954 0.8252141602395122 0.3212615001430923 9 271 204
2.0749245385235477 0.8259218352800859 0.31698092928007204 9 271 214
2.0148161110238534 0.8186345649132518 0.3036541443555023 9 271 231
1.9969353177801672 0.818250281261873 0.30093614114910494 9 271 236
2.49168282977259 0.8829138347061789 0.40989258654218874 9 272 84
2.382775075395935 0.9500981992620781 0.44203738375446444 9 272 115
2.368164664534181 0.9481938545387636 0.43869237329911903 9 272 120
2.2003479113962063 1.0028634709192807 0.4539578840251046 9 272 173
2.320221729438141 0.9675810394359339 0.4418035865983756 9 273 135
1.983167163923442 0.8184909756679053 0.2903166223422988 9 273 240
2.65242165403268 0.8624635868255037 0.40968130647336976 9 274 33
2.5422233254877917 0.8808009024220007 0.40736225931722525 9 274 68
2.496082106724837 0.9287845790712883 0.43486723876195454 9 274 79
2.4679624940538027 0.9347357876992546 0.4351741683365977 9 274 88
2.242906046940502 0.9831974000117965 0.438217706076385 9 274 160
2.2117615786066023 0.9889579107540587 0.4379706377944579 9 274 170
2.6836813556394015 0.8601252390946454 0.40837259494964173 9 275 23
2.574310815711247 0.8766332268233326 0.40485884164613983 9 275 58
2.414790088258206 0.9626767540741981 0.4436718796093797 9 275 104
2.602880520554243 0.8831554114927826 0.40947555121873513 9 276 48
2.2477380660604984 1.002250846111375 0.4446165353508731 9 276 158
2.090925415008101 0.8240606686963647 0.295904298711803 9 276 210
2.005694007339276 0.8197178198384307 0.28090740742054976 9 276 234
1.9655979058781345 0.8124539538709725 0.27013697737381337 9 276 245
2.679503798300104 0.8687190715283879 0.40591799196202727 9 277 24
2.337938724480867 0.9832346084404349 0.43980521185531507 9 277 129
2.291684452053838 0.9921958000155242 0.43971870346173225 9 277 144
2.2427840343714243 0.9975772176741058 0.43670438780137566 9 277 160
2.664587804638293 0.872001981155639 0.4021739963127704 9 278 29
2.630159438398884 0.90327214461504 0.4197411717514379 9 278 37
2.5540490794863793 0.9317855904871715 0.4294641080899093 9 278 60
2.5040116671055666 0.9539538160988879 0.4383095482191448 9 278 75
2.4540213676129645 0.9670148205939442 0.4406336356409488 9 278 91
2.0095308726783223 0.8063614963408241 0.26290049298323304 9 278 233
2.4100804116480425 0.9829949143472907 0.44204351196272706 9 279 105
2.1166026642436186 0.8270219046503231 0.28836136862228035 9 279 203
2.088699542025822 0.818884020128448 0.2785634861626656 9 279 211
2.056781078913676 0.8231609656986636 0.27712907894250494 9 279 220
1.9734392308365778 0.8069300956608094 0.25367390376183296 9 279 243
2.6678920922304528 0.907871720115561 0.42051840745038715 9 280 24
2.4795728344202415 0.9749565517100285 0.4422326381970758 9 280 82
2.2909927315811833 1.0082664554572052 0.4395252608295941 9 280 144
2.383822767415083 0.988691834819029 0.4346881478212883 9 281 114
2.2577434842149424 1.0153751368533201 0.4360643211426156 9 281 155
2.248518170810054 1.0173275735875367 0.4361650167514932 9 281 158
2.117642187895645 0.8216752174698352 0.27575958653470845 9 281 203
1.9705330725984023 0.8107763294125763 0.24690938503042137 9 281 244
2.3145071246877427 1.0166089469801256 0.4411931355240688 9 282 136
2.1072221567856575 0.8324462351174209 0.27763549536079246 9 282 206
2.0149383812373274 0.8248107965041509 0.2588880441455472 9 282 232
2.5354430255989198 0.9781371886723502 0.44097020342461657 9 283 63
2.4873174020382285 0.9866778355961259 0.44029527763859266 9 283 79
2.4447419087594287 0.99568847332805 0.44075999520761333 9 283 93
2.354492909663523 1.0098551358516672 0.4381446190337299 9 283 123
2.287364180240975 1.0240621976059496 0.4388773386699867 9 283 145
2.2750391270082986 1.0274928699724166 0.4396119087532253 9 283 149
2.2197892495792195 1.04247503495607 0.44261534512772593 9 283 167
2.2040907784181845 1.050730996331316 0.4463871530192476 9 283 172
2.068965106567643 0.8194919171837913 0.25823564781500874 9 283 217
1.9781524671862916 0.8049982780991136 0.23462336548378993 9 283 242
1.956121854394039 0.8063717820893999 0.23246352819516325 9 283 248
2.6070725256863745 0.9769984623410857 0.4466110100666145 9 284 38
2.0155596648869185 0.8237590637232757 0.24914565328353988 9 284 232
2.666337160870159 0.9398908561283705 0.42408967656128205 9 285 22
2.580864566476005 0.9825911315531832 0.4431124322389999 9 285 47
2.5685153368286757 0.9860251146345433 0.4438502482627842 9 285 51
2.5496021300217997 0.9924890011794372 0.44586568399798754 9 285 57
2.248020147330041 1.0382674336597462 0.43589157598548245 9 285 158
2.1402187492584606 0.8272784391273211 0.26521497533510585 9 285 197
2.0554253779870755 0.8238945129527822 0.2504626428399417 9 285 221
2.6001851438110806 0.9777327353997418 0.43850674935236755 9 286 41
2.0126762228746475 0.8267497212154904 0.24182450292701585 9 286 233
2.6242851182863087 0.9906930596822845 0.44777590314747395 9 287 31
2.5032978950168228 1.0212093880496582 0.452731876864225 9 287 71
2.3796289992326383 1.027739542189392 0.43954007218757796 9 287 114
2.3136761667801453 1.0392423368439736 0.4384422301491415 9 287 136
1.9399205637839683 0.8253345094110549 0.22560801742544578 9 287 253
2.2319992388410785 1.0614909215842492 0.43917582564613755 9 288 163
2.1102166697870017 0.8166692672276352 0.23946901841995483 9 288 206
2.0779439478009074 0.8300396223510909 0.2446802405555164 9 288 215
2.456688157484738 1.0221591938159544 0.4390123369410741 9 289 88
2.141733642142123 0.8340499031669859 0.2524998062228667 9 289 197
2.540513334367853 1.0077308383778159 0.4367480323270758 9 290 60
2.432794617145304 1.0411312089216047 0.44585731699530373 9 290 95
1.959260732458595 0.8281569907430844 0.2166822856466657 9 290 248
2.406712517429798 1.0466887715681015 0.44237053407733984 9 291 104
2.3168012668376594 1.0518684261055768 0.43295262110773214 9 291 135
2.2718889828479147 1.0801106546737775 0.44751253013471204 9 291 149
2.2328470096785376 1.0671924489466864 0.432033804780245 9 291 163
2.190651716991038 1.1087087347787008 0.4569633645275717 9 291 176
2.132220306955163 0.8318730562017551 0.24043862783312475 9 291 200
2.100487859149994 0.8296277589754366 0.23405606293797487 9 291 209
2.0791156859427082 0.8308923733073794 0.23184247320764229 9 291 215
2.0397053957264215 0.8319011966286793 0.22676707515329286 9 291 226
2.6348055450796735 0.9968293724178743 0.43487722741785584 9 292 28
2.3509024719028426 1.0577279970151063 0.43858920600380524 9 292 123
2.203813577212635 1.0969947625496346 0.44632650214131586 9 292 172
1.9929665289776177 0.8324117032702674 0.21561938466579078 9 292 239
2.047600695574897 0.8293747304703523 0.2168463339895963 9 293 224
2.566873133540112 1.030787603120856 0.44282698922592023 9 294 49
2.477569408736253 1.0521231705914837 0.4456500378882353 9 294 79
2.151428494897722 0.8272765449618984 0.22618499322395857 9 294 195
2.105625803121623 0.817487094698804 0.21189879664947764 9 294 208
2.0334628923634135 0.827076832711481 0.20837370031094804 9 294 228
1.9714169355974662 0.8288430619127005 0.20042570497408718 9 294 245
2.126987450433998 0.8312011622048585 0.22093153978085645 9 295 202
2.080893263008216 0.815009374020828 0.2016731476659086 9 295 215
2.379249952753627 1.070563428555815 0.4373435457248811 9 296 113
2.339163832309855 1.0871462453787955 0.4439711726860003 9 296 126
2.2559779429078066 1.1104208619662856 0.4492121489728911 9 296 154
2.6517192558116776 1.0218361455974014 0.4374201664494468 9 297 20
2.6001040764275696 1.0368046398948767 0.44108583315202377 9 297 37
2.573682656695795 1.0423964445513052 0.4413742267090268 9 297 46
2.4032124557489327 1.079283578797938 0.4438554187361239 9 297 104
2.152986599962241 0.8248432141668176 0.21081319252113628 9 297 195
1.9868430763077904 0.8252211853855309 0.18594705274819456 9 297 241
1.9390723728359207 0.8312865303091108 0.18336612313866452 9 297 254
2.467010856115473 1.0609604706343276 0.43567208846339067 9 298 83
2.4318538128778355 1.0675930467641437 0.4354338918160534 9 298 95
2.647888929693093 1.036435837214229 0.44052497384011824 9 299 20
2.2986150230952735 1.1022854686674313 0.4381036851256699 9 299 140
2.204229079523531 1.1254893324421833 0.44162735665672304 9 299 172
2.157083742852684 0.8320207855607231 0.20775596882058167 9 299 194
1.9726295823952147 0.8250573868732494 0.17423744732520685 9 299 245
2.6098867340602516 1.0469210094392287 0.4390630784705818 9 300 33
2.532024999820827 1.0690422685076242 0.4442867604725427 9 300 59
2.310831215888296 1.1166615425359399 0.44732589891690266 9 300 135
2.2835782582352713 1.1111441769410002 0.4388758976169256 9 300 145
2.2399315333356884 1.1179632539309339 0.43747782843344196 9 300 160
2.2301338018011414 1.1280976899901707 0.44383298707166774 9 300 163
2.122123898115996 0.8309405647965069 0.19695751184388377 9 300 204
2.0900208523123025 0.8240313921349776 0.18668597054828062 9 300 213
1.9652825419200197 0.8214117816690776 0.16555390315234586 9 300 247
2.5249579726611735 1.0681410403241935 0.4387426846248812 9 301 62
2.5066110894899123 1.065582871322726 0.4339327150224932 9 301 69
2.4787732199237036 1.0763051948150448 0.43799418467016515 9 301 78
2.1894258803643956 1.1399578155339787 0.4430312970636221 9 301 177
2.549823279717479 1.0773789548116948 0.4460178354487201 9 302 52
2.4375322263043655 1.0890814071664776 0.43782753011558295 9 302 92
2.1476136499877017 0.8376125799711371 0.19680406286557162 9 302 197
2.076326044520334 0.8269661313932062 0.17749484694082818 9 302 217
2.0581747162948996 0.8340243489945574 0.18020386884967143 9 302 222
1.9407641240105282 0.8379642616196517 0.16516436342590368 9 302 254
2.636480411860408 1.0614604962541574 0.443227354545878 9 303 22
2.4915660371503785 1.0937364793434345 0.44606747470324715 9 303 72
2.26981303361852 1.1382583707843201 0.4466003640999374 9 303 149
2.4647091875974234 1.1050472782035752 0.4470443748735389 9 304 81
2.260971638300343 1.1449570313880677 0.44674566027490514 9 304 152
2.192012254253055 1.1571446794101024 0.4456064199669225 9 304 176
2.1348637361879548 0.8258643463476043 0.17631500338124484 9 304 201
2.1021637032793343 0.8392032859972867 0.18171715714712966 9 304 210
1.9669081049406512 0.8309238493595503 0.154183917463119 9 304 247
2.6081719018401235 1.0778982878958798 0.4442804572484049 9 305 31
2.4008591153917114 1.1121578847484528 0.4389581515697911 9 305 104
2.3362312957145064 1.1306436481208435 0.44345618822123356 9 305 126
2.0374707761567685 0.8372827708193202 0.16543353810708372 9 305 228
1.974850374902266 0.8353104504330138 0.15410715206445547 9 305 245
1.9412570470280017 0.8344068550196315 0.14815285358590757 9 305 254
2.557860478240091 1.0949572197331894 0.44617168844632626 9 306 48
2.235937515329698 1.1510830908193053 0.44018223392713574 9 306 161
2.081474506384277 0.8340099426122556 0.1650055080141417 9 306 216
1.930337505722804 0.8355821231426082 0.14258009924282944 9 306 257
2.264696916658522 1.153022047333787 0.4387423938089814 9 308 151
2.1078283193563423 0.8261112872729726 0.1534094859081192 9 308 209
2.08220209504204 0.8403180982110507 0.1606903991160029 9 308 216
2.0384813929663474 0.8328031084942997 0.14780178738843452 9 308 228
1.9376063199701044 0.8254072652673847 0.12599015448942796 9 308 255
2.5911910966594984 1.0903198178011972 0.4365424903418762 9 309 37
2.533555883405168 1.103315236489049 0.4378095355140095 9 309 57
2.373987151808122 1.1330986250710269 0.4363616599424762 9 309 113
2.3624890831180068 1.1355320656163885 0.4364871629987792 9 309 117
2.297976616975113 1.1563630462178254 0.44293255911037854 9 309 139
2.0717525021965684 0.8373824237282963 0.15195922841927878 9 309 219
1.929485386291275 0.8148554893079041 0.11140946276873764 9 309 257
2.6309560631743003 1.1050172850298916 0.45091668692617537 9 310 20
2.487491404265676 1.1162623737606445 0.43713761709398047 9 310 73
2.4069256488115114 1.1349063479478503 0.43929573531072696 9 310 101
2.119551350549813 0.8269156718115283 0.14640234489914716 9 310 206
2.4339485755154913 1.1474963447465205 0.4500105772402181 9 311 90
2.4222136429280123 1.1412281237590496 0.4430895208182144 9 311 95
2.395388282490321 1.1405405824716712 0.4382557559602276 9 311 105
2.3325602799247926 1.1538374424007205 0.438941532550706 9 311 127
2.298706610047517 1.1745276194249135 0.45020512067132556 9 311 138
2.1481890955672918 0.8404003128086377 0.15706666711451844 9 311 198
2.061596348918757 0.8364494171316021 0.14006854749948294 9 311 222
2.501741983018679 1.1355244934529864 0.4474958463578702 9 312 66
2.4868601332845577 1.1410580791720735 0.449585150469749 9 312 71
2.358905458974637 1.1609862725153757 0.4452011941403957 9 312 117
2.323819362919677 1.1596705414511252 0.4385190118473421 9 312 130
2.281717523552319 1.1646076255774356 0.43576714059882815 9 312 145
2.0399186498560096 0.832754276406622 0.1288253447454355 9 312 228
2.0030277846672497 0.8373832146916833 0.1266589093621111 9 312 238
2.5282778747738317 1.1291075434371167 0.44285935579581004 9 313 57
2.468666680007563 1.1425173490490161 0.4441537901193271 9 313 78
2.442778583926685 1.1495836827442127 0.4457238249290829 9 313 87
2.116994849277742 0.8351699960281476 0.13835364131666217 9 313 207
2.0733853946777234 0.8309062193541963 0.1278859444029412 9 313 219
1.9697889041863186 0.8377509257629054 0.11678578218698488 9 313 247
2.621972275094715 1.1172033178141363 0.4445782556662006 9 314 23
2.604104348036339 1.1233631624397873 0.4467088844380469 9 314 29
2.5458267074100083 1.1261838152484627 0.4396026019610353 9 314 51
1.9168230113534879 0.8328014132479673 0.09935357299930292 9 314 261
2.513366940854839 1.1393884829536307 0.44141539556290077 9 315 62
2.2538381897589392 1.1958984994688595 0.44554147206182804 9 315 154
2.1834626644374238 1.210792710082311 0.446309630937447 9 315 179
2.063153093885468 0.8284743701093591 0.11459811407799969 9 315 222
1.9700290467368553 0.831555184149158 0.10203498664352839 9 315 247
2.440889972399871 1.1642143096670061 0.4462748321887642 9 316 87
2.3598305431648345 1.1805787598341417 0.44651147197429286 9 316 116
2.08543353502312 0.8424335149806843 0.12480585095439589 9 316 216
1.958667138402658 0.8215450599316139 0.08213858861871226 9 317 250
2.323015392633426 1.1962435417320492 0.44602021829212823 9 318 129
2.2527221177209444 1.2142761085880653 0.44939150793039895 9 318 154
2.454574557284121 1.169964530088734 0.44219335413392424 9 319 82
2.372625667579325 1.1912481086103772 0.4463501883475427 9 319 111
2.2680799175572974 1.205494090039685 0.4409666192523294 9 319 149
2.179765128219485 1.2399449171862813 0.4549799894219828 9 319 180
2.0313101995259175 0.8332362726689455 0.09382668732824406 9 319 231
2.51714376871131 1.155925329830247 0.43715773372699185 9 320 60
2.4140334185183017 1.1864050564900168 0.44547640705214975 9 320 96
2.406481095890094 1.1746236525488667 0.4344421276904171 9 320 100
2.346978251793814 1.2021706235894207 0.4475161586948633 9 320 120
1.9863128298959012 0.8251622698254635 0.07479149531712759 9 320 243
1.919041622034892 0.8433348115337336 0.07879547444132262 9 320 261
2.552083281279824 1.1618890843983913 0.4442118281362222 9 321 46
2.2978828025934335 1.21097132622571 0.44305422665329686 9 321 138
1.9561030675008497 0.8242256634526195 0.06404225256366547 9 321 251
2.4994254418609874 1.1753713445243035 0.44307004799584826 9 322 65
2.4724539673729433 1.1873607212562876 0.4486191463348572 9 322 74
2.361253370818103 1.20304368656059 0.44326456017891136 9 322 115
2.2597775728138276 1.2347268015844244 0.45291106206090603 9 322 151
2.6205975973907227 1.1536308449706252 0.44135036521615567 9 323 21
2.5259895210963097 1.1752219725787763 0.44369959181598806 9 323 55
1.922727632034921 0.8331651634039847 0.055967708208707334 9 323 260
2.192199336191769 1.245845470079965 0.4436587991482259 9 324 176
2.2545334793802785 1.2443716920623797 0.4492064506019 9 325 153
2.1761810431137985 1.2773820934131963 0.4639468568235967 9 325 181
2.522833633322143 1.1914693612545706 0.44591722466676087 9 326 55
2.4311005821044605 1.206195612967643 0.4429425339562978 9 326 89
2.1555681159774314 0.8386812336935385 0.08480195395793722 9 326 198
1.955299832333624 0.8513749942260849 0.06180687263808027 9 326 252
2.4620863021848756 1.2167847769983542 0.4535335100824138 9 327 76
2.3553347020767115 1.2315737580976045 0.4480576030672818 9 327 116
2.320307217076662 1.2366457753561007 0.44644758244057736 9 327 129
2.101201816169839 0.8366377178923508 0.06896701735332322 9 327 213
2.0192479947448865 0.839155019113698 0.057243387221226794 9 327 235
2.5888979909693735 1.1875695728813291 0.44649757013850544 9 328 30
2.4460071217710126 1.2131342409631845 0.4440638118908151 9 328 83
2.3856691089982927 1.2266835898025419 0.4453880084060755 9 328 105
2.05330288810646 0.8317045953064646 0.051672083886261655 9 328 226
2.004169875567315 0.8288527541994664 0.04089375830187669 9 328 239
2.500138639053641 1.205544081709608 0.44313409493692 9 329 63
2.4185432366542026 1.2313761618834493 0.4513619938400042 9 329 92
2.4108539531787323 1.2314465753970614 0.4501118954273444 9 329 95
2.334544779391991 1.2491535171209793 0.45227884895674375 9 329 123
2.280509267702786 1.244241448054907 0.43886116108920015 9 329 144
2.5605455909292827 1.207505424165831 0.4515032602620417 9 330 39
2.5437725068323607 1.2056125937789597 0.4470070166923963 9 330 46
2.3110695869268247 1.2525290234904 0.4475415547719175 9 330 132
2.1945151697052974 1.2748639849924652 0.44680839510168235 9 330 175
2.139383307356894 0.8363434041274471 0.06036144634878937 9 330 203
2.091522818933318 0.8293670711120773 0.046177448537299215 9 330 216
1.9865477663724818 0.8476961658784887 0.043980800697419165 9 330 244
1.9677894591390064 0.8516661565451416 0.044185550290792186 9 330 249
2.470849947630993 1.2225642102752359 0.4454819487417008 9 331 73
2.612122270800921 1.1941838214218308 0.4416189131629984 9 332 21
2.2299315106106774 1.2742947502327147 0.44511924019469284 9 332 162
2.0698682851960872 0.8342641788766434 0.0366481367427407 9 332 222
1.948716272132758 0.8428408962452927 0.023199938401222475 9 332 254
2.3809336393222105 1.2485040776970449 0.4451855555377542 9 333 106
2.35799349179743 1.2587818809931806 0.45014591374862434 9 333 114
1.9200037026843668 0.865758292601271 0.03305378146132876 9 333 262
2.2588357848389102 1.2805007001990754 0.44825033850605145 9 334 151
2.5132765234635257 1.2397504906094554 0.45330435722721774 9 335 55
2.5027445132476767 1.2342518029599991 0.4466617846056484 9 335 60
2.492555118758811 1.2348627608449925 0.44542151320557766 9 335 64
2.1560541423888506 0.8447370247827288 0.04566948116452152 9 335 199
2.033731909099688 0.8613519076020035 0.03889554409187168 9 335 232
2.3325372185776434 1.2779519798909946 0.45163955894066654 9 336 123
2.310400239807332 1.273375264222174 0.44375470388299343 9 336 132
2.286181880791616 1.2785008151611448 0.44401905071871317 9 336 141
2.204902900184993 1.3003334595049645 0.4489694236617716 9 336 171
2.123554068474455 0.8421113271082357 0.03269661527750056 9 336 208
2.105180715098749 0.8359662291614627 0.024093439131312788 9 336 213
2.0191925446992007 0.8649702468847411 0.03451305747480071 9 336 236
2.5815072772578636 1.2259847957639392 0.44595721604069216 9 337 30
2.4613599431931585 1.259121299185883 0.45405527607691387 9 337 74
2.441812062638587 1.2493828355986911 0.4420526851836233 9 337 83
2.0716947727987627 0.863654023516973 0.03753684665247836 9 337 222
2.0455468862179775 0.8476036535859341 0.018819580077274134 9 337 229
1.9561423715388133 0.8788589922581307 0.030654091095833724 9 337 253
2.415813831616579 1.2725573281927347 0.4543197837784476 9 338 91
2.3715587957982898 1.2788438138054148 0.4520823915559711 9 338 108
2.204540987764414 1.3111116063767732 0.4511848913888372 9 338 171
2.1570808030299093 0.8530495114056778 0.038190436005047124 9 338 199
2.0572469447916104 0.869558750965677 0.035199392344740676 9 338 226
2.556431748062879 1.2381294732256813 0.4450636709063427 9 339 39
2.1243686663788157 0.8574293667116566 0.031292979856609726 9 339 208
2.408640662582299 1.2762756662829242 0.4491778173396537 9 340 94
2.3469111184278044 1.2924120429643 0.4525836877075784 9 340 117
2.080108875412347 0.881928771571098 0.04021378989768909 9 340 220
2.0249141561323434 0.8928421779472682 0.040133267924545635 9 340 235
2.002515423236971 0.8883664614007882 0.032181339613152504 9 340 241
1.9689590770181182 0.8908602134973629 0.028449405073786238 9 340 250
2.48154164473584 1.266934284747469 0.45021885289241315 9 341 66
2.106862238056311 0.856082059553049 0.01692265025576689 9 341 213
2.510295395031945 1.263860381030102 0.44901549884212955 9 342 55
2.29720823437378 1.3058935711918689 0.44859765055264367 9 342 136
2.210596419050667 1.3188613079373066 0.4447414712490443 9 342 169
2.125170476331647 0.8726815721489978 0.029994258429512977 9 342 208
2.578190760861953 1.2471427309683751 0.4425789832911451 9 343 30
2.2623162059988142 1.3193502622512325 0.45083862684164666 9 343 149
2.2552894868827873 1.3154812557612718 0.4461034966560202 9 343 152
1.9706577640157579 0.9066819901818184 0.02783697040373223 9 343 250
2.5430680001658987 1.2713423453162274 0.45447370044957336 9 344 41
2.5201513480868263 1.2746639318490391 0.4533460736777766 9 344 50
2.1400943582427714 0.8858796876610981 0.03454021364057058 9 344 204
2.0963269639825683 0.8882649080725407 0.028818407755692332 9 344 216
1.956670649080948 0.9178216404470456 0.030342776310496422 9 344 254
2.341548076139305 1.307059213186274 0.4468433044111171 9 345 119
2.3221083749030917 1.3157528456310683 0.451197272065462 9 345 126
2.3039177780769697 1.3188394933914713 0.45070556940628315 9 345 133
2.5918682736981054 1.2669897300463555 0.45223479240142206 9 346 22
2.100619435036049 0.897570962293796 0.028013328945736937 9 346 215
2.0786241248762396 0.9045129349721073 0.030328707906906782 9 346 221
2.3804316674690806 1.3154813595877017 0.4543915094413551 9 347 103
2.279428436708432 1.3345735393759695 0.4534143114605611 9 347 142
2.2566140556667795 1.3355952341944521 0.4501972568551196 9 347 151
2.1301967074028108 0.8956457976676719 0.026635672142613087 9 347 207
2.3709084109041494 1.3166721361795533 0.45018498828963627 9 348 107
2.311135611372463 1.3285619675657059 0.4501427132266973 9 348 130
2.0392835543593977 0.9260589847389202 0.03283400134676495 9 348 232
1.9918556248911954 0.9322945370950311 0.029878248371475236 9 348 245
2.4108042580847426 1.3165228734943972 0.45378381168713355 9 349 91
2.1529859236972775 0.8933990287328943 0.01873437936113853 9 349 201
2.233338444612984 1.3487059823073768 0.447224971588418 9 350 160
2.2031789184304693 1.345987077567775 0.4391832125794366 9 350 172
2.054574874560695 0.9231026383681675 0.02295380403416436 9 350 228
1.974594130511993 0.9438222192958952 0.027314793048195618 9 350 250
2.5911428210824137 1.2789851836101995 0.44528292970505334 9 351 22
2.5175616596364 1.2968303681982818 0.44818312024607665 9 351 50
2.310475034750115 1.339900506614149 0.4497445141121774 9 351 130
2.2548574682106044 1.3463137625739334 0.4418279512096246 9 352 152
2.1907020191148807 1.3266018941972038 0.41170663294781895 9 352 178
1.954981588156793 0.9739864199913106 0.04161786218765062 9 352 256
2.2275306685243406 1.3460011439551662 0.4328745006685555 9 353 163
2.34588339320507 1.3435539544344182 0.4490311143940189 9 354 116
2.206516974803005 1.3330512600263729 0.41327201263775715 9 354 172
2.131449061001595 0.9414108469624245 0.03425414455709874 9 354 207
2.0994455894431563 0.954714092102142 0.03576364622735961 9 355 216
2.0242205870269414 0.9638510325163594 0.03024097556241312 9 355 237
2.367369029748364 1.3501736311635373 0.4521539258502092 9 356 107
2.309352780141987 1.3586882541813192 0.4492556211637664 9 356 130
2.2795589792421715 1.3461743764568699 0.43192302319870546 9 356 143
2.1466615343519506 0.9399482545814037 0.025831153968738363 9 356 203
2.10719195527403 0.9475488369687288 0.025555708499906515 9 356 214
2.0604946545469143 0.967970643887768 0.03595375136808476 9 356 227
2.1826806899926225 1.3230292876295413 0.3882806275500976 9 357 182
2.3262617181263483 1.3564222420647392 0.4396362857785019 9 359 124
2.0508827129505702 0.9714997514324568 0.022631236206452243 9 359 230
2.3083777115450888 1.3504139136739604 0.42694634229654405 9 360 132
2.232961168660724 1.3311734933147756 0.394299299219226 9 360 163
2.155026482126833 0.9514627076408508 0.018431317202024733 9 360 201
2.2073797289701362 1.3306076256194175 0.3851492648515269 9 361 173
2.1971982871612377 1.3275262284253517 0.38026521265218527 9 361 177
2.0587929881739186 0.9813134878735121 0.02355442459161705 9 361 228
2.362098479770985 1.3568969351242057 0.4362109504763789 9 362 110
2.335631245459536 1.3445688290145326 0.41933875632367124 9 362 122
2.0057459758395435 0.9945346351818993 0.021084817226704855 9 362 243
1.9953723548275633 1.0042007459544129 0.028348478709240954 9 362 246
2.290377210949317 1.3354606566673712 0.39825646509184676 9 363 141
2.12303302127848 0.9866286968645523 0.03108595701436423 9 363 210
1.9750105651066254 1.0201943877222452 0.03485115542016626 9 363 252
2.010743524221052 1.0190753303858355 0.03575372706044799 9 364 242
2.3111764105351726 1.338494005196189 0.3978056473873972 9 365 133
2.1095653601454663 0.996406356477749 0.02807152061867324 9 365 214
2.0955690018731348 0.9956475769537705 0.024627334826380576 9 365 218
2.0532607625378394 1.0135322310010664 0.033722108997430666 9 365 230
2.0461700325593566 1.0068464844597402 0.025885888910405663 9 365 232
2.3825717874033367 1.3441879944487014 0.4135074884374521 9 366 104
2.233052426280192 1.3327232120333556 0.37332938739530563 9 366 164
2.174886745007522 1.3331411960187534 0.3624304165494119 9 366 186
2.0606404624325902 1.0243407766015702 0.040730107450696496 9 366 228
2.3708775268939903 1.3347560226882131 0.39840984099256715 9 367 110
2.3409670139381387 1.3344055461545132 0.3922354807154389 9 367 122
1.976764908050669 1.0329089466497328 0.027827608519511715 9 367 252
2.199702829798102 1.33316325499962 0.35966845698421945 9 368 177
2.299016529809788 1.334398006598216 0.3765640287312919 9 369 139
2.1757403348014717 1.3375355958666189 0.3554274564479949 9 369 186
2.156475828031034 0.9995471570228833 0.020581454004428235 9 369 201
2.096562723101557 1.0233330391565738 0.03211377031961549 9 369 218
2.2886134333058656 1.338095215503743 0.37439147657704863 9 370 143
2.3642884368187267 1.3412988336345606 0.3887546923638441 9 371 113
2.219781248797082 1.3320033854936921 0.3510124895161275 9 371 170
2.200994175795126 1.3337639548470965 0.3490331160598714 9 371 177
2.338130126659239 1.3379820159320195 0.3765747387468399 9 372 124
2.1529282305641058 1.024630960990315 0.029849430644803165 9 372 202
2.139102660974318 1.0268194991340431 0.02927079581024672 9 372 206
2.0176059142064195 1.0481076505961227 0.026219344829042424 9 372 241
2.295986946930138 1.3351284494937952 0.3616042637544039 9 373 141
2.30779085090268 1.3429610841929607 0.36796772549827494 9 374 136
2.267920088128649 1.3359507910819681 0.3530202710357524 9 374 152
2.177528508228036 1.341104029569445 0.34008933925296825 9 374 186
2.0669766652614188 1.051853178491737 0.029980860095973894 9 374 227
2.2443703885990387 1.3395077952288927 0.3480306699978455 9 375 161
2.060427335455913 1.0625205214370173 0.03443500727427251 9 375 229
2.3664524424218834 1.3452692335820184 0.37453354878569156 9 376 113
2.231766754661546 1.339288254754857 0.3414390479240641 9 376 166
2.136404455207882 1.0483656296170398 0.030663311945397176 9 376 207
2.295166761074709 1.3376505964580023 0.34873788118187 9 377 142
2.271998175417102 1.3366916724607762 0.34309578384606887 9 377 151
2.2121998807625505 1.3302948685566034 0.32458980902978674 9 377 174
2.1123647811000494 1.0649044285053595 0.03756265501399936 9 377 214
2.5160248934802265 1.3575495129260402 0.4097332478806017 9 378 50
2.50195605275894 1.357599729741367 0.40693354164256745 9 378 56
2.068329639304906 1.0754046633384238 0.03438155468647164 9 378 227
2.4792427467609457 1.3572557325482253 0.39834204538694973 9 379 66
2.126506379350358 1.0708525874478383 0.03673979608148614 9 379 210
2.3457205939486956 1.3373145331858616 0.34720092651771806 9 380 123
2.319587368187818 1.3399255736671518 0.3445211750271959 9 380 133
2.1722200381712753 1.3389973854100075 0.3135153358836609 9 380 189
2.1033832436726163 1.0659734062281248 0.02221925388995305 9 380 217
2.3667671950303886 1.346753121839972 0.3573035629895114 9 381 114
2.293452013852568 1.3447740467466958 0.34027924140393306 9 381 143
2.2237417856550095 1.3383870470093593 0.31950202382479254 9 381 170
2.07952419218359 1.0882524217561664 0.03513957979846105 9 381 224
2.0388092759222207 1.098327226862485 0.037069354750481676 9 381 236
2.4622395866294746 1.3506003530663062 0.37706141844527474 9 382 75
2.306875576100568 1.344896061404703 0.33931743183812046 9 382 138
2.0663032717941237 1.092223460767163 0.031633691212973325 9 382 228
2.5319455557727135 1.3569333977196685 0.39420827795649505 9 383 45
2.4221460264405623 1.351103034942833 0.36184612464805266 9 384 92
2.400952725079895 1.347600989587716 0.3538597861605344 9 384 101
2.393884906122543 1.3461923630909347 0.35094873866353393 9 384 104
2.359283023326711 1.3440758708605272 0.3416146598774088 9 384 118
2.282235619370786 1.34440735983173 0.3260203104812114 9 384 148
2.173792477841946 1.340491670987047 0.29956287895025113 9 384 189
2.1483490810187345 1.081567878353965 0.027911493085845507 9 384 204
2.134753262953395 1.0851713546214823 0.02880689728375252 9 384 208
2.5002485364352163 1.3577974449564434 0.3812036424453653 9 385 59
2.324343712300135 1.3435386741898008 0.3299792432487403 9 385 132
2.2547875845539735 1.3394050139466362 0.3112770967867087 9 385 159
2.2712318294846705 1.338905821275516 0.3102546671786184 9 386 153
2.231606281556574 1.3378772834729389 0.3009375874395932 9 386 168
2.2071686938599866 1.3401523941200213 0.298204492070687 9 386 177
2.1351963402764396 1.0939416346144637 0.028251519232196598 9 386 208
2.0642920878613933 1.1118445821830623 0.032025284356177686 9 386 229
2.5801015306381787 1.3553503125636202 0.38795143308859137 9 387 26
2.557863073714066 1.3586103239132987 0.38669134111024084 9 387 35
2.5278372666371194 1.3577322967532623 0.3795048479867851 9 387 48
2.3694175803202095 1.3514803698741538 0.3399056718871072 9 387 114
2.258342330413939 1.340271442255107 0.305049756543637 9 387 158
2.510149321461095 1.362912243554095 0.37750203282431705 9 388 55
2.483707034600736 1.3504505245421425 0.3589686119805997 9 388 68
2.1869612771385336 1.335243574284712 0.2808967817630377 9 388 185
2.112322498948671 1.1011190655590741 0.021215348031426773 9 388 215
2.3692791219330855 1.3472737383054378 0.3278120160312321 9 389 115
2.0284473609694254 1.1323046201809068 0.03130730789882774 9 389 240
2.447396730873162 1.3545721159796653 0.3480983609075401 9 390 83
2.4201708153074324 1.355291328711866 0.3431050343530597 9 390 94
2.335210989449891 1.3430148473058046 0.31228919496256435 9 390 129
2.3110124869713653 1.347415751209737 0.3117975005485978 9 390 138
2.208870631048979 1.341657351223253 0.2841924134157572 9 390 177
2.0825120499327667 1.1176968027537493 0.022557048176053307 9 390 224
2.398470343495317 1.3556038290035837 0.3350283863339425 9 391 103
2.254293409083601 1.3488010374456136 0.29336511992098036 9 392 160
2.199292704017655 1.3388861442097053 0.2712044949119101 9 392 181
2.119399047708313 1.133057530356779 0.036879630366195126 9 392 213
2.4415824260915104 1.3566214361824809 0.33762498031946464 9 393 86
2.163235571047988 1.3487978407490404 0.2699687414266847 9 393 194
2.520520605581761 1.36073689587956 0.3550741557997874 9 394 53
2.499550338458838 1.3594421867233184 0.3492101572656072 9 394 62
2.401042476670804 1.353776024012765 0.32210586130907704 9 394 103
2.3795135814554254 1.3497331666218815 0.3132015596832374 9 394 112
2.3466258614444704 1.34881083155629 0.30518279600048226 9 394 125
2.279800355541086 1.3450386572800808 0.2868719752014177 9 394 151
2.303414985697713 1.348018140592587 0.2911330849408291 9 395 142
2.2314418973430774 1.351800015219711 0.27970961438827513 9 395 169
2.2024366322360858 1.3472039044290653 0.26858024473192343 9 395 180
2.1501641177011668 1.1342680045192648 0.030311444058941373 9 395 204
2.2572567726663144 1.3435915432420344 0.27248191536316435 9 396 160
2.491655532177818 1.3611971840709824 0.3380255795811937 9 397 66
2.4692350554723212 1.3630871952295711 0.335206348312433 9 397 75
2.292065300951955 1.3449109814531706 0.2773941291993829 9 397 147
2.2470557832686393 1.3437305541221625 0.26639579257998935 9 397 164
2.1664727215512363 1.3622125545075234 0.2688072994941195 9 397 193
2.337647289604111 1.3539103874975167 0.2929618361177053 9 398 129
2.2455529954117703 1.1324763416171335 0.03457552303539235 9 398 175
2.229228110079012 1.135218496448236 0.03398624490573887 9 398 180
2.3265477763750653 1.3485220403108693 0.28076943726342507 9 399 134
2.268765249315308 1.1301138063793568 0.03228110796700023 9 399 168
2.2121993489787584 1.1492037884037318 0.040587384533061766 9 399 185
2.091847756479936 1.1568787335134725 0.022678818355019725 9 399 222
2.282755301503299 1.3472338526184362 0.26581454374247704 9 400 151
2.201782783239315 1.1624776745935446 0.04792156117149515 9 400 188
2.2484881970769646 1.1473088721166824 0.036918670224431516 9 401 174
2.433501389177332 1.3559964318324644 0.3004278894811452 9 402 92
2.419309730465257 1.3533281134971813 0.29439686130248766 9 402 98
2.395448133813951 1.359880330428668 0.2923610243074688 9 403 107
2.386158666428338 1.3568900322886632 0.2870394048048419 9 403 111
2.3680737479477876 1.3578854014405595 0.2841380175024235 9 403 118
2.3506214446510176 1.3559146939534588 0.27813084600129345 9 403 125
2.305757582108674 1.1501667875478707 0.04310969993310998 9 403 156
2.2968080043404413 1.1478127086291567 0.03855920570570559 9 403 159
2.132006038156823 1.1727787028925156 0.02951210425285966 9 403 210
2.1155048234827163 1.1805192482168374 0.034340489854482126 9 403 215
2.099330654621396 1.1804021593606495 0.03064350358146517 9 403 220
2.298980602718815 1.357050809274984 0.2639519598968296 9 404 145
2.2583503163311796 1.1570601022415583 0.0354277315021585 9 404 171
2.2175773536169503 1.1536688594000906 0.02267805375648768 9 404 184
2.209488016204474 1.1741604877794882 0.03862786356737269 9 405 186
2.0608459184741177 1.1943208318014729 0.027808415295621502 9 405 232
2.0477856118133335 1.1942604122595255 0.02484054227004462 9 405 236
2.3420199633103214 1.149331540934952 0.035973066719486635 9 406 145
2.3365793580049483 1.1455467483947892 0.030578969835261205 9 406 147
2.242044804934882 1.1697850616081538 0.03628529403503755 9 406 176
2.2717842074371504 1.1631870412962453 0.03085422464256915 9 407 167
2.1198928860681594 1.201364417447446 0.034434842001545674 9 408 214
2.3837992129373653 1.1508289864765702 0.03271095683589342 9 409 132
2.357813971981117 1.1429842856133674 0.01810922931649639 9 409 141
2.3069465598866317 1.1688950922904253 0.030796595094077173 9 410 156
2.4313354408231582 1.149273546549681 0.03219006665840052 9 411 117
2.426088271251446 1.1461815027360078 0.027529218158671043 9 411 119
2.3896795900886447 1.1580895519903205 0.03264474619815516 9 411 130
2.166915434082679 1.362829685971179 0.2120046088892653 9 411 195
2.1506888255567214 1.3571584011776363 0.20195918923560363 9 411 201
2.2920270694273785 1.1728568832835644 0.02230173783886058 9 412 161
2.124091756440932 1.2153932311726774 0.03201280191280631 9 412 213
2.442576844137805 1.1581669671707342 0.035263172497471906 9 413 113
2.419759420310913 1.1532167581733748 0.024462562111679853 9 413 121
2.242660457537662 1.1948889441204462 0.031131207001675598 9 413 176
2.201070903050793 1.2036909186849993 0.031585162908450926 9 413 189
2.1149100098450173 1.2265077133803426 0.03294976811533612 9 414 216
2.063853813423791 1.229639966578545 0.02480917305996111 9 414 232
2.236272686858571 1.20470023573446 0.03126875385743011 9 415 178
2.460110684172571 1.168155861955073 0.0364141718676263 9 416 107
2.1374262878320742 1.233665798449167 0.036761767708261894 9 416 209
2.428789405558447 1.1765571917478217 0.03404648435107349 9 417 117
2.390808671094859 1.172090643034992 0.020149616329915077 9 417 130
2.3547114772212066 1.1838984991115138 0.025314131647044436 9 417 141
2.1913289575843478 1.227507840597332 0.03743351541739659 9 417 192
2.370474577154977 1.1844275594511249 0.024804574508815236 9 418 136
2.3426031719695635 1.1868574586797984 0.021126126090574182 9 418 145
2.1376290805536615 1.24480688929592 0.0400906943005821 9 418 209
2.4315448643684068 1.1861345465850042 0.03148380679603702 9 420 116
2.194610746336718 1.2404302070308824 0.03886667932887278 9 420 191
2.1599977473483865 1.3584520578584511 0.16715564152216733 9 420 199
2.3875514817442793 1.197902057979883 0.030065560894121823 9 421 130
2.349888542376422 1.2051820744700077 0.029675719727741745 9 421 142
2.3127281926870857 1.209592156436815 0.026076833631960783 9 421 154
2.296537146636542 1.215091530703392 0.0286562782601254 9 421 159
2.267895533672001 1.226370718923862 0.030278390299321112 9 422 168
2.2211752815039283 1.2366435779607137 0.026485736426080875 9 423 183
2.6098588278769417 1.3832025888204176 0.28528288242374056 9 424 22
2.605749749911164 1.1721544581675958 0.03730593747471067 9 424 59
2.5612242077849463 1.3777690357713763 0.2634280247519889 9 425 44
2.189334174281524 1.2565314740016593 0.03273148484782573 9 425 193
2.117737572816884 1.2641261471582366 0.02463910882245579 9 425 216
2.4932930002716764 1.1932674008882134 0.02592806392452851 9 426 96
2.3851671474911513 1.2106619173689896 0.020642851622428182 9 426 131
2.2836164388590023 1.2376431529997205 0.028216713436167495 9 426 163
2.255663218506215 1.2421868006002266 0.026905399214646186 9 426 172
2.0988490200509995 1.280863949730696 0.03508246988560293 9 426 222
2.6521432868642267 1.1703084710488296 0.0320404009141011 9 427 44
2.6216831002057015 1.175384594643763 0.03075354007066311 9 427 54
2.524662498960961 1.1890660613694726 0.02371622922322625 9 427 86
2.3499775780419263 1.2239806340711599 0.023194029339545175 9 427 142
2.2312054886694535 1.2470619488765973 0.022061629456875176 9 427 180
2.1450717943621274 1.370125110572154 0.14687536595264783 9 427 205
2.086857471741994 1.277611628696811 0.023637208607073523 9 427 226
2.5591237161115563 1.1842085712492536 0.021473654832924183 9 428 75
2.2676032537256923 1.2506953284354922 0.03033322231855551 9 428 168
2.4563748079730057 1.2172708323063581 0.03129461229404451 9 429 107
2.427242879784627 1.227536025446234 0.03648787515631735 9 429 116
2.4187536238847396 1.226599578625829 0.03333041202131959 9 429 119
2.1931151087569964 1.2688872122366333 0.029292942524271837 9 429 192
2.1698516561483503 1.3558048774746894 0.12705186277653602 9 429 197
2.691095824106847 1.1659203344609397 0.022006897118591606 9 430 32
2.234377587826262 1.2584858105421388 0.022108123788859402 9 430 179
2.7054679120797034 1.1734786634060541 0.029787911126220923 9 431 26
2.622675570896215 1.1828242074548474 0.020906206280571382 9 431 54
2.4916336004149757 1.2207785156904447 0.03456831613443767 9 431 95
2.386610936342796 1.2436868274733255 0.0365301435510208 9 431 129
2.54394638958369 1.2046296302310577 0.023188536002460403 9 432 79
2.45273291231892 1.228016569429921 0.029085621412003437 9 432 108
2.228052519428081 1.2687634327829378 0.023368975930806224 9 432 181
2.199549654917176 1.2795587362224514 0.029398414041514886 9 432 190
2.0850571718626214 1.3017485167438672 0.028197377128801993 9 432 227
2.6537387513481145 1.1940012850604065 0.03242969457579181 9 433 42
2.3198823033602514 1.2592225234960313 0.02952687304504975 9 433 151
2.264091276524907 1.2723890214820779 0.0317725436995433 9 433 169
2.1529598982731284 1.3740486553987976 0.12709723816855645 9 433 203
2.5918611637108 1.2033899049261354 0.0239155600869303 9 434 63
2.513183957024703 1.224112256066482 0.02969327272070066 9 434 88
2.3736846459141026 1.2577068598355914 0.036134769551367185 9 434 133
2.1448947283033726 1.2884860708867298 0.017316768900208057 9 434 208
2.7107710006853254 1.194859255804255 0.038042980859961606 9 435 22
2.6572065663334605 1.2034853241684715 0.03534259560349762 9 435 40
2.477044059698685 1.2321286825127247 0.025811228814904164 9 435 100
2.3920362225389917 1.2568953892907253 0.034951821063688104 9 435 127
2.2118107386262786 1.2909727548705447 0.03199143485049216 9 435 186
2.619033464807873 1.2105693112775104 0.02985186144021945 9 436 53
2.5809403956822043 1.2145716166128122 0.025331348662055442 9 436 66
2.483781596678071 1.2405471967418458 0.0329736875916109 9 436 97
2.365802080894813 1.2601032891200836 0.027679613989165297 9 436 136
2.356417867778326 1.2627659276322634 0.028604712314198366 9 436 139
2.568686433853186 1.2195617726525307 0.023658242344785307 9 437 70
2.542638166553173 1.221020638953902 0.01899752781284092 9 437 79
2.418172902167846 1.2514163162719798 0.025301118966119862 9 437 119
2.307043559266803 1.2776383505636433 0.02981089986286456 9 437 155
2.2343515852444806 1.2869417443198152 0.023186643114768035 9 437 179
2.144791181351617 1.3092745689685301 0.028285119359972466 9 437 208
2.6713997117158192 1.2096645502493217 0.032292146836456315 9 438 35
2.639826156758661 1.2122984948856699 0.02768301057823397 9 438 46
2.4483494207388206 1.2494488684246863 0.025644818772962985 9 438 109
2.1720488540216225 1.3450342922534424 0.07407074274076875 9 438 198
2.117307902955627 1.3201848554692788 0.030083762529790725 9 438 217
2.652371120465597 1.2113550894633929 0.024929648957290773 9 439 42
2.513535127256867 1.2360218711238222 0.020655434298096242 9 439 88
2.3311466465504 1.280686251691716 0.030090025521475106 9 439 147
2.716995306233206 1.2047722060941919 0.028236238198345642 9 440 20
2.6859626383024717 1.2066301758159022 0.022775049843639872 9 440 31
