2.2090172038171856 0.9283036846748096 0.5660609839295815 9 212 225
2.181858445057718 0.8640333234562305 0.5290967709017329 9 212 232
2.133932331216556 1.059500705006935 0.629415314152407 9 212 251
1.418388126239008 1.207027934989737 0.6421406846884707 9 212 481
0.899575134828859 0.7158017755016877 0.33076202774578833 9 212 528
0.8664713852038413 0.7312823941629694 0.33598970316816756 9 212 537
2.7563577818780756 0.8470153197173618 0.5695001837830503 9 213 56
2.732597799982151 0.8568058898019946 0.5725543913753302 9 213 63
2.7013539332831527 0.9240958343199563 0.6058537978568891 9 213 68
2.684307143527859 0.9341934314088394 0.6096989154060591 9 213 73
2.655403312356592 0.8433671764424016 0.5581277607360501 9 213 89
2.3311163153702426 0.9146376690502467 0.5662569010234945 9 213 188
2.312339852711785 0.8548777546772612 0.5323476844877066 9 213 194
2.1917123902313427 0.9132427722911665 0.5525134539572248 9 213 230
1.6602753227565659 1.0936531700031782 0.6000682386501491 9 213 396
1.567896861054914 1.2105705492723926 0.6543762566176299 9 213 438
1.5397024167066025 1.2150442346329107 0.6541559325567916 9 213 447
1.4904889862132153 1.2061847660231795 0.6448014819491523 9 213 460
1.4466358508124193 1.202436242864362 0.6386970287614513 9 213 472
2.8370436199973783 0.8991901422648976 0.6015020670435718 9 214 24
2.2749344508297784 0.8128784561940738 0.5022018124956857 9 214 205
2.2268778728736764 0.8505621465497057 0.5180609620384542 9 214 219
1.3001867151830189 1.1818470298193384 0.6102422282895076 9 214 509
1.2416998051754393 1.1831683876904733 0.6054765919225259 9 214 525
0.8870701067125453 0.7223203680986436 0.32324261544899624 9 214 531
2.5788849750418774 0.9304748108388874 0.5905589435972555 9 215 109
2.3650255637367223 0.8989847522573293 0.5533342717741419 9 215 178
2.2545081865238625 0.8319137539965153 0.5065387039527139 9 215 211
2.023825498728062 0.796079562124631 0.46537288385030373 9 215 274
1.6159318458703464 1.2148809404812198 0.6541666249689754 9 215 424
1.524823607049754 1.2081965219424977 0.641959872108315 9 215 450
2.7942225609299776 0.9417270531179509 0.6134054839077066 9 216 35
2.7863643115412233 0.8563922980359546 0.5661783280560773 9 216 46
2.7074392739275113 0.9071748046453223 0.5863688681913961 9 216 68
2.6624869576885173 0.8489486185594377 0.5503966446951012 9 216 87
2.5743961478895416 0.8865088430828905 0.5625171020129299 9 216 113
2.4036599342115386 0.9110401342989134 0.5597167650445052 9 216 166
2.2965040575301905 0.8244622111857116 0.5024123138655596 9 216 199
2.234232319107479 0.846400940326554 0.5084676768339885 9 216 217
2.225414949391622 0.893251802581414 0.5331534065646208 9 216 220
1.6607755344840407 1.0799621527718553 0.5814053845363255 9 216 394
1.2826212193985733 1.185667954563886 0.6031866726017445 9 216 514
0.8884247252092559 0.7275535668347348 0.3163271710361819 9 216 531
2.67563374592151 0.9321116858273015 0.5933170073643113 9 217 77
2.546986202517068 0.8405653768267991 0.5310071296482505 9 217 124
2.3978384628917677 0.9078386885989862 0.5536077885357105 9 217 168
2.3354470680860095 0.9271051696111723 0.5582080513564044 9 217 187
2.316253924952946 0.9071619084254134 0.545474387122078 9 217 193
2.2864060478706096 0.8160485424102581 0.4928026747362382 9 217 202
2.158972504166154 1.087454030564956 0.629113059274911 9 217 244
2.130859536185513 1.0856391024992182 0.6254453254714947 9 217 253
2.084797237382699 0.8062097643950854 0.46823738519279146 9 217 258
1.6400448843852011 1.2038397002891257 0.6433873586794776 9 217 415
1.4960330306710898 1.2143656344129088 0.6354405856725696 9 217 459
1.4352380346268845 1.2054746464607256 0.6247929387425318 9 217 475
1.406954643781137 1.2054913117540307 0.6221107189110575 9 217 483
2.790945605687803 0.9287534681287903 0.5988701824067816 9 218 38
2.6810488328263817 0.8698907834910012 0.5560360212953654 9 218 80
2.655598515324886 0.8585324200977473 0.5473646346240021 9 218 89
2.5350650076512826 0.8369778425611252 0.5239998566903505 9 218 128
2.1931332591472703 0.9193471089931422 0.5365260372281754 9 218 230
2.1697826326317076 0.8188254918867237 0.4790938523679169 9 218 235
2.0370485508543146 0.8089452607871279 0.4609727839859501 9 218 271
1.6686195963987414 1.0468300785329072 0.5563618140349684 9 218 388
1.637542274786161 1.214115943839733 0.6452499442988031 9 218 417
0.9269464269390786 0.7504933317486633 0.3226976443071279 9 218 526
0.8928104166652147 0.7437556624455106 0.3157328292588695 9 218 532
2.7981122236639946 0.8760312063870008 0.566901435326144 9 219 41
2.744031964122001 0.8406322688745969 0.5421855979713681 9 219 62
2.624793051228134 0.9083389402265158 0.568051079639597 9 219 96
2.5885407235848623 0.9405717857241693 0.5823368773853288 9 219 106
2.4103471409792365 0.8790949273265896 0.5313112983348425 9 219 165
2.3721135057930516 0.9198237192017484 0.5500907168481152 9 219 176
2.316783457165016 0.9160276801933034 0.5426784682841966 9 219 193
1.653443579145005 1.150470218030709 0.6081618335908948 9 219 404
1.644500301954166 1.1775203941331058 0.6222157105222221 9 219 410
1.334115555040075 1.189317766920683 0.5988799824348691 9 219 500
2.709981088696983 0.9081057521418496 0.5724291402838237 9 220 68
2.576807041624753 0.846549004206893 0.5254856548347148 9 220 115
2.346070290430016 0.9327688179254845 0.5509160164302513 9 220 184
2.0804708754361214 0.7969716881070714 0.4500803846873467 9 220 259
1.6433911695482444 1.1991224775122544 0.6304545998690184 9 220 413
1.5646896366005048 1.211273272835721 0.6295755900220876 9 220 438
1.5233182647933092 1.210645798012663 0.6252304652717166 9 220 450
1.2860552183594873 1.184771359421644 0.5879805704616954 9 220 512
2.7934508176163497 0.9475181619820159 0.5987494681844803 9 221 36
2.665520296318949 0.8652397037021313 0.5405963972130439 9 221 86
2.2808536307630853 0.8615340749160934 0.5011759198307171 9 221 204
2.2408611049569505 0.913305284200588 0.5260643999210699 9 221 216
1.4831334901314863 1.2078729315456918 0.6161808672481695 9 221 461
1.3968728808059547 1.1993830053967802 0.6030843186009383 9 221 484
2.8135963769632406 0.9491583355442155 0.5980617292167572 9 222 29
2.7702769212083154 0.8544096719799352 0.5409638554210467 9 222 53
2.703126268810892 0.9300251516845477 0.5766014021281379 9 222 69
2.6825178655786397 0.9551326321132179 0.5885993710361229 9 222 74
2.602784624134239 0.8872244607350166 0.5429235413785432 9 222 105
2.3989705154059227 0.8710207878469372 0.5139855570498391 9 222 169
2.1948102334668858 0.9343015752080146 0.5293654758107309 9 222 230
2.1640232537004773 0.8278417059748249 0.46695627070742507 9 222 237
1.5794006388234632 1.208664350618448 0.6223810442693132 9 222 433
1.3726086408753069 1.2020455899270726 0.5985006612737367 9 222 491
0.8710016757154122 0.7408754889680798 0.2922042193595997 9 222 535
2.8505406921021215 0.8793123906643299 0.5589941073961261 9 223 24
2.644722148545816 0.9126398297687124 0.5574706059536606 9 223 90
2.367622527440638 0.910135990110605 0.5288798199861491 9 223 178
1.6556077395769628 1.1345525530929272 0.5847421320926252 9 223 401
1.618270620387211 1.2132741877872337 0.6251802305521725 9 223 422
1.326377686589904 1.193562896930781 0.5854980037441908 9 223 502
0.9236696469905183 0.740389193499241 0.29210834547729125 9 223 524
0.9129964924043332 0.7391994070269716 0.29039458839968324 9 223 526
2.7573926869751766 0.8510154310959486 0.5301843438629923 9 224 58
2.622135653089681 0.9381008193488447 0.565827679332764 9 224 96
1.6398931682494138 1.1949874210357667 0.6134520508907112 9 224 413
1.5386432564255954 1.2112882154641607 0.6126358733874203 9 224 445
1.4662404880121649 1.2122654328857623 0.6060456108337277 9 224 466
1.3668674936866343 1.2067797456168852 0.593160628648189 9 224 493
0.8760550906055049 0.7443952072920286 0.2846897719095587 9 224 534
2.786825229640334 0.9609795448349625 0.5913715134562348 9 225 38
2.5833430486971203 0.8443864437409978 0.5053648535710649 9 225 114
2.4141917014924945 0.8615743599837067 0.4983058496246806 9 225 165
2.2426868254267114 0.9424365875395548 0.5269699563412716 9 225 216
2.21246417588869 0.9375999556060877 0.5212433300365821 9 225 225
2.164843899428944 0.8307915581587071 0.45620975660837715 9 225 237
1.669138962336663 1.0825334029754874 0.5492361844056374 9 225 391
1.5755730158337982 1.203863831983863 0.6084770219898904 9 225 433
1.252037840019415 1.1851443205354921 0.5658401334587609 9 225 520
0.8931204182163495 0.7491455285877351 0.28406218594599597 9 225 531
2.687162014092867 0.9466106130819423 0.5697252691868568 9 226 74
2.6674560350317953 0.9421110656945029 0.5652113912213409 9 226 81
2.6112824857386028 0.8533216689157042 0.5092781168789438 9 226 105
2.563144451298891 0.8320482758537036 0.4924224249483724 9 226 121
2.55366788044124 0.829714729138449 0.49015548751749405 9 226 124
2.3482817844470705 0.9322891128189055 0.5278497748913848 9 226 184
2.33183095089474 0.9377273039070904 0.5292941923891256 9 226 189
2.315559870256082 0.9342403227040823 0.5256965262987099 9 226 194
2.14218086022116 1.1585264792134833 0.6355816804683573 9 226 252
1.4583445990782034 1.2129791876706657 0.5983353082160295 9 226 468
1.4092454646219288 1.207913013277149 0.5905723132442311 9 226 481
0.8737239754454558 0.7513354915884587 0.278378982483831 9 226 535
2.776466530618792 0.8680761622348467 0.5303031958497796 9 227 51
2.679189938162989 0.9456436304901008 0.5647147394876122 9 227 77
2.590204916429415 0.8296458516823537 0.4897825288044353 9 227 113
2.385082357706919 0.9187884992258752 0.5199858906401323 9 227 173
2.2961352481616117 0.9376962916665381 0.5218432822366884 9 227 200
2.2431478545055064 0.939725233364672 0.5176934997948575 9 227 216
2.1928491309248184 0.9402682759468917 0.5129671358637731 9 227 231
2.1755184843851136 0.8216374909323476 0.4437096546487782 9 227 234
1.3733626132284713 1.203418155855432 0.5807076906766622 9 227 490
2.809227573279517 0.9600780883580555 0.5823705800531139 9 228 31
2.801886146278942 0.8872318995199373 0.5400051644756649 9 228 41
2.752828107121019 0.8564766012183433 0.5174947107712685 9 228 60
2.6374384427780426 0.8724035185838834 0.5149862881368776 9 228 96
2.610554037930925 0.84646668370343 0.4974602046532155 9 228 106
2.283251062509264 0.938815616390712 0.517300854813881 9 228 204
2.0153311847886384 0.8095817467689175 0.41649625042190785 9 228 277
1.304425385339239 1.1832559835238117 0.5585005989677031 9 228 505
1.2530619754742955 1.1796137448771273 0.5512515172640876 9 228 518
0.9233084415765027 0.7343009181039475 0.26360747738394075 9 228 522
0.8891256032754398 0.7419084037453265 0.26451544332712906 9 228 530
0.8512821191252735 0.7379172885051739 0.2584272705510351 9 228 537
2.548457994886155 0.8550229708012702 0.4921482378632669 9 229 125
2.5278655149468667 0.8383480308137312 0.48049978660952064 9 229 132
2.494271731504873 0.8715109805784758 0.49612824251471266 9 229 141
2.3164849568756702 0.9394217260745055 0.5171111947896466 9 229 194
2.2335238533470076 0.9357414186511686 0.5066112764177253 9 229 219
2.2137853373515184 0.9463344479381723 0.5106925492516609 9 229 225
2.2068558139533683 0.9416764649157303 0.5073196339662638 9 229 227
2.1754486485061597 0.8131476772290349 0.43040816803717363 9 229 234
2.1327004200935002 1.1796154802602437 0.6363248195365006 9 229 256
1.4244406294585028 1.2008363414568806 0.5768837749918277 9 229 475
1.4012990036711517 1.2042151131711376 0.5764821931469523 9 229 482
2.794504502584708 0.8551837004468013 0.5132815113909801 9 230 47
2.753308028735397 0.8484253794784311 0.50520275384806 9 230 61
2.653192971830831 0.951224569807493 0.5542366889578093 9 230 86
2.3820260569179355 0.9372489054421236 0.5186320293700006 9 230 174
2.2640044648388393 0.943164147552972 0.5100458460217656 9 230 210
1.9983184424947027 0.7970157876471511 0.39887302118911006 9 230 281
1.5738993134236094 1.2055814719252065 0.5910587400904536 9 230 433
1.509487190981957 1.208413938498503 0.5861446952757459 9 230 452
1.250395851464715 1.1837875186716345 0.545632804158095 9 230 519
2.7991712651447864 0.8735974001296798 0.5205594140981172 9 231 44
2.5559864489691706 0.8773369901501382 0.4978871930738926 9 231 122
2.3336049711726536 0.9374353812112779 0.5099271281641814 9 231 189
2.250575116372756 0.9240937909700198 0.4937336047416001 9 231 214
1.6400733109608192 1.2172953735580168 0.6009223954458797 9 231 415
1.6072781488884502 1.2192906403552288 0.5987269872667299 9 231 425
1.557887153581817 1.2090694037553078 0.5877729763078743 9 231 438
1.4322916171060047 1.2043169911770102 0.5721989781787425 9 231 473
1.3926875096543136 1.204292086170013 0.5681401270280222 9 231 484
1.252474474504959 1.1771600441170116 0.5381330543732287 9 231 517
2.8196916462677617 0.9546683620908436 0.5659164700269491 9 232 29
2.7888420561212395 0.962416926682957 0.567248413304523 9 232 39
2.7850978856210666 0.8617090364483766 0.508404340166616 9 232 50
2.6455165255580466 0.8918903533700919 0.5115993907300033 9 232 93
2.6006674279631943 0.8621380809296026 0.489725779115715 9 232 109
2.1659092724631295 0.8246838391698097 0.423365910097939 9 232 237
1.661474168440062 1.1232531924302542 0.5449132656136999 9 232 397
1.649615029048738 1.1700408692950883 0.5708559230696295 9 232 406
1.5016993912915515 1.2091406446178392 0.5783727151215992 9 232 454
0.9182189291391598 0.7615357621163881 0.2586619440361493 9 232 526
2.773919190829227 0.8606782629244234 0.502798871068562 9 233 54
2.3312200461697943 0.9300948277316499 0.49759512453886967 9 233 190
2.221204837946092 0.9395842441705176 0.4917789294517785 9 233 223
1.6404833306018398 1.2125982736183551 0.590989803458204 9 233 414
1.5373921095908438 1.2117263317516824 0.579849472842091 9 233 444
1.497443515224028 1.215324716938937 0.5778264323430258 9 233 456
1.3599764747708611 1.200934277550703 0.5552626894367262 9 233 492
0.9236567409450278 0.7361782031576818 0.2394199661024241 9 233 521
2.6357601628429044 0.868533794500344 0.4892077396489074 9 234 98
2.6001061860354437 0.9081888824791338 0.5087125255078433 9 234 107
2.4400382503153506 0.9543858101038907 0.5191501505436283 9 234 156
2.4345076314005683 0.9450433009309438 0.5131111610607312 9 234 158
2.1697799167819793 0.8215681127298649 0.4134358751440741 9 234 236
1.8719098835812398 0.7891749075481984 0.3636127364880384 9 234 313
1.6378779384197049 1.2227826710469323 0.5930374181142748 9 234 416
1.60513277884522 1.2177345186861814 0.5866902688245784 9 234 425
1.5882082296307147 1.2179767045582612 0.585077875204718 9 234 430
1.4883614611860425 1.2190510477053138 0.5753581596677582 9 234 459
1.326832403087679 1.2021328644618765 0.5487191695975364 9 234 501
2.805721456985341 0.9707033987979607 0.56298807152012 9 235 33
2.7600081594307726 0.8726134964118504 0.5006158666026654 9 235 58
2.6538619675055872 0.9631312304651911 0.5427245511923192 9 235 86
2.400145789974348 0.9386188859489912 0.5019031848427737 9 235 169
2.3472669748643846 0.8658888045344424 0.45367928190402984 9 235 186
2.116493366095452 1.2147527446969413 0.6345425724680213 9 235 263
1.4731418238914613 1.2118206934785785 0.5658154654356103 9 235 462
1.4262231250758552 1.2108200863343337 0.5603411989082665 9 235 475
0.8938699870903588 0.7466102178237857 0.23225214942443317 9 235 528
2.6339739260082773 0.9314521950424519 0.5182536375634323 9 236 95
2.559921032708493 0.9514498904930275 0.5222943388696907 9 236 118
2.497834202452828 0.9520785112639827 0.5161670040619218 9 236 138
2.4725194996340036 0.9541952456071476 0.5147656470888857 9 236 146
2.211842455492965 0.9409891347664463 0.4796967029341841 9 236 226
2.1669696154946063 0.8278786024135112 0.4083080650680988 9 236 237
1.5631858338094684 1.2110844967399486 0.5710622703150666 9 236 436
1.3463029362576406 1.2004415457239623 0.5420880947411302 9 236 495
2.785181797951586 0.8644097894415443 0.4906712917895413 9 237 51
2.6598786633656495 0.968712003673506 0.5392311811845172 9 237 84
1.5230254089537643 1.2085467559794074 0.5616297834848457 9 237 447
0.9258015267208681 0.7389187613947126 0.22083963588833733 9 237 520
0.9032608968675433 0.749205322370792 0.22455780186601304 9 237 526
0.883874588987422 0.7500064814103611 0.22299315585073476 9 237 530
2.533520434474055 0.9493976563688646 0.5106899202897152 9 238 127
2.5136624637834304 0.9582041764682372 0.5138242527063057 9 238 133
2.4388131365598578 0.9529267344790364 0.5027780826330153 9 238 157
2.1504757911715258 1.2294315597696364 0.636609249630489 9 238 252
1.8958052243738481 0.8096725755588647 0.36026810748997873 9 238 308
1.652068208070331 1.181541343401935 0.5554794014497413 9 238 406
1.565315735383308 1.2104999508821574 0.5635188502423008 9 238 435
1.3061423078013012 1.1927219058724876 0.5255648742947443 9 238 504
2.8244557476440533 0.9661611367337364 0.5477578039091879 9 239 28
2.7874416188081943 0.9559925163667995 0.5377613091098408 9 239 42
2.5929266195129674 0.965099215291572 0.5225371100585228 9 239 107
2.554015306308205 0.9606116931072648 0.5157280289491769 9 239 120
2.1557851599179556 0.8160925555763265 0.3872295091377933 9 239 240
2.1018737642831717 1.2584474043424405 0.6453776305920477 9 239 270
1.4662599161927097 1.2167185519053605 0.552986544851032 9 239 464
1.2463218120512547 1.1841527357675348 0.5102040759655723 9 239 518
2.775099350813221 0.9613014149888142 0.5359333134380251 9 240 46
2.787954783377726 0.8953996850073782 0.4978412492957429 9 240 48
2.7112819499775243 0.9597439754260049 0.5281907844335182 9 240 68
2.6298157225078067 0.9647410452367344 0.5224899962655158 9 240 95
2.503613009570575 0.9472984835773735 0.49857792597761597 9 240 137
1.6620594262386534 1.0969391788912903 0.49838576559249637 9 240 393
1.551093494490376 1.2188227459086618 0.5595320956041362 9 240 440
2.647422171966172 0.9695360118322978 0.5235014596882575 9 241 89
2.146490821962289 0.8343712357668129 0.38853620870854577 9 241 243
1.4284177894536572 1.209341771558415 0.5369524790469155 9 241 473
1.4064635033400559 1.2089798820745103 0.5343809046796436 9 241 479
0.935451272798768 0.7592832352754304 0.21354503564237115 9 241 520
0.8657634269945942 0.7459293447949842 0.19804522484698017 9 241 532
2.6412603585187098 0.9734898912684875 0.5214770175130797 9 242 91
2.197354083698179 0.9630681095100007 0.46736132563396304 9 242 231
2.0998220120640836 1.2844582809496181 0.6508000599948497 9 242 272
1.8569174811290727 0.7968142503793738 0.3303546881615227 9 242 317
1.632135140773846 1.2103054669596882 0.5556629662907767 9 242 415
1.524084649642007 1.2160043679048291 0.5474606595186152 9 242 447
1.4876923458995026 1.2075030515066059 0.5384095223065406 9 242 456
1.3869521943998955 1.2080802016378251 0.5279040491982827 9 242 484
1.3689373343750706 1.2085945402190632 0.5262735089933758 9 242 489
2.7674891324600273 0.9654337001009605 0.5265133615233225 9 243 49
2.6938812286306097 0.9669779540232779 0.5194802482822233 9 243 74
2.17146573443163 0.8170420632299462 0.372095768721846 9 243 236
1.6218220937757462 1.2186595259257655 0.555887181380068 9 243 419
2.823723328295328 0.9720444422834826 0.5329405582652043 9 244 29
2.796686363562629 0.9859083254078556 0.5384304342130511 9 244 37
2.710371422752398 0.9746027266902049 0.5221663519100311 9 244 68
2.2172596145276016 0.9431040273095999 0.4493728971976274 9 244 225
2.1302228852820644 1.2763455280101197 0.6425547307994846 9 244 261
1.9392097124570524 0.8123027879154261 0.33958554999047097 9 244 297
1.8580139469750239 0.802473410382067 0.32477602280430107 9 244 317
1.3502842343313008 1.204929099754358 0.5142868813037207 9 244 493
0.915022738987505 0.7141610559947136 0.16849733440625547 9 244 517
2.7013485034986973 0.9783047946890266 0.5197141505740882 9 245 71
2.4289848446022813 0.830765615521265 0.39988089504908 9 245 164
2.28858910716603 0.8646239132515317 0.40520509692952333 9 245 204
2.2078388500699093 0.9557539000161792 0.4520097366365676 9 245 228
1.872397685021138 0.813543306255047 0.3285352453243757 9 245 314
1.5989526895816097 1.215807537280785 0.5442110193294992 9 245 425
0.9140428873749715 0.7359342033120846 0.17641523726083141 9 245 520
0.873936784936765 0.757053025350739 0.18492380740902692 9 245 531
2.8286123600825333 0.9795162678717795 0.5307021738341499 9 246 27
2.6583397973706226 0.9617299844517178 0.5011043380520745 9 246 87
2.271692906716111 0.9042269173724504 0.42340720975655843 9 246 209
2.1727562709440034 0.8270640624116605 0.36525790317358187 9 246 236
2.161626336649192 0.8260610483786546 0.36342102583877867 9 246 239
1.5334695331236106 1.2181631635089833 0.534715177587828 9 246 444
1.4735858742087038 1.212350061954302 0.5245768080454308 9 246 460
1.4115974148148709 1.211355559958813 0.5171600805095511 9 246 477
1.3824701722588655 1.2056576598700879 0.5104698435434577 9 246 484
0.8889760689248691 0.7238765606937927 0.16104652704469768 9 246 523
2.7847968764633526 0.9857174454628057 0.5260135916283871 9 247 42
2.758814562624925 0.9862853112120069 0.52349608365798 9 247 51
2.3202857212060106 0.8883360806326983 0.4148582112620718 9 247 195
1.8443323257154298 0.7969776329519109 0.30614521555602914 9 247 320
1.655928296343151 1.1413504835917592 0.49719210889207055 9 247 399
1.6460841938017121 1.1843884386567707 0.5225799773609379 9 247 407
1.5882835142506826 1.2172411888392227 0.5364111928460021 9 247 428
1.5707052023701564 1.2168078502011788 0.5342050872180582 9 247 433
1.3280043167101487 1.2030327096291473 0.4989525704425877 9 247 498
1.2552372219810826 1.1853327284320394 0.48003580731891127 9 247 514
0.9280372123836258 0.7306150942644711 0.16422185938968203 9 247 516
0.9164091680662221 0.7497154777879151 0.17468811631807757 9 247 521
2.7268177972968513 0.9785866102227083 0.5114980648122982 9 248 63
2.691169734341262 0.9552662768129956 0.4931462441901344 9 248 77
2.2418418917162386 0.9319863134346573 0.42895874889554886 9 248 218
2.1509488983911464 0.8263308582943558 0.3536420646754128 9 248 242
1.5990824507811623 1.2191493098923485 0.535020136345672 9 248 425
0.8727857957000698 0.733138399094204 0.1544001056657165 9 248 527
2.776627710823779 0.9796012791736473 0.5139352000896987 9 249 46
2.7612149134279647 0.9830314400587512 0.5143445954418754 9 249 51
2.209138402023827 0.9636704348905039 0.4408514546559139 9 249 228
2.0944232087215506 1.304008276816761 0.6390274249907116 9 249 275
1.4518314913175887 1.2154660634501533 0.5125713804393452 9 249 466
1.3099966035254333 1.2010681870565407 0.4878489270368114 9 249 502
1.3006425404440645 1.2040172389517814 0.48863496028960074 9 249 505
2.8382933205174448 0.9857518948705934 0.520943751084077 9 250 24
2.142248987031165 1.3035254988764597 0.6407670285949163 9 250 258
1.897577449003715 0.8217298299437921 0.313615560962784 9 250 308
1.8706543100002615 0.8077964379485376 0.3019333417386436 9 250 314
1.5641761750430254 1.21386623806255 0.5202899825233473 9 250 434
1.4160214624650025 1.2113196214257653 0.5021256424438876 9 250 475
1.3765834868155835 1.2010376917756784 0.49131481904480667 9 250 484
0.9250432862779003 0.7314949635276848 0.14863659036701216 9 250 516
0.9090499634729201 0.7445836990378898 0.15499052966039795 9 250 521
0.8543964290285162 0.739420742173418 0.1456619435137081 9 250 531
2.8056386261039497 0.9929510699712176 0.5180882863554915 9 251 35
2.2803728514973156 0.9592728430527586 0.4379959347146487 9 251 207
2.110538551679996 1.3181290397939822 0.6430272118743118 9 251 270
1.5395817454468959 1.2150037493188621 0.5144238413098752 9 251 441
1.5240631658801196 1.2123997606755508 0.5110526647629834 9 251 445
1.494605721228594 1.21722484252685 0.5107541576150322 9 251 454
2.8397506068673706 0.9948039631185095 0.5194150138585982 9 252 23
2.33082269533255 0.9515994640923788 0.43483921404200054 9 252 192
2.1210381119164095 1.3120876460880018 0.6371413644902528 9 252 266
2.096262465521427 1.3158726310516056 0.6367155589380995 9 252 275
1.6336215841062949 1.2234660215550284 0.5265223015968996 9 252 415
0.9077239327135593 0.7461782440957117 0.14529837853328043 9 252 521
2.3010439693597506 0.9617773724511414 0.43381934405379496 9 253 201
2.2175791770670483 0.980352693883934 0.43603633926611773 9 253 226
2.1817168966824934 0.8268524196094971 0.33536833867832905 9 253 234
1.9216342710481529 0.8242867260702615 0.30423676602530225 9 253 302
1.882997838047056 0.8104333652029856 0.2911339457909363 9 253 311
1.5587895737257669 1.213321965839016 0.5078777265880041 9 253 435
1.5126504620293233 1.2132278255117357 0.5025821205752106 9 253 448
1.4521453538602946 1.2206486661739864 0.5003852958404689 9 253 466
1.3388659103781526 1.1983647792857366 0.47350583958645576 9 253 493
1.3245436428800357 1.1937803438369552 0.4689954020064151 9 253 496
0.9099467772249366 0.73683986192225 0.13438912397540625 9 253 519
2.1410377967504712 0.8275489141488184 0.3267403901629602 9 254 245
1.59802629335679 1.2158075434486433 0.5100815952742466 9 254 424
1.4301300797422767 1.2152184275816051 0.4905658886526396 9 254 471
0.9490524036555217 0.7581348093036435 0.14698232223877716 9 254 514
2.8597719393289087 0.8686481990141783 0.43067257267991366 9 255 31
2.371436579673086 0.956648148555387 0.43053100838312175 9 255 180
2.133959847046667 1.3248768627114766 0.6368088357922636 9 255 262
2.1219073847450693 1.317218950886336 0.6305725997820951 9 255 266
1.4952014035596897 1.2162832300214572 0.4947830217636222 9 255 453
2.2522625746557288 0.9953140380207712 0.4373875393945874 9 256 216
2.1460735243196996 1.3073021521122412 0.623733308629826 9 256 257
1.8970919903024326 0.8212940594197102 0.28575771533968397 9 256 308
1.870406427329865 0.8091570734429163 0.27496202683571336 9 256 314
1.6612621912088361 1.1457795502724497 0.46513808903556253 9 256 397
1.6580098642032013 1.155110980745646 0.4707028349535838 9 256 399
1.644557222016418 1.1976999785697209 0.4962606350940446 9 256 408
1.5727389544639503 1.2162656389021609 0.4998117951459895 9 256 431
1.4082352010165209 1.2055345179697656 0.47405038442916325 9 256 475
2.493283943616211 0.94777640757013 0.43086670175333097 9 257 143
2.2823320632135458 0.9964439870537676 0.43756861291438054 9 257 207
2.1716393682114514 0.8293353061611277 0.3180135404564106 9 257 237
1.6636999316395948 1.126383799909779 0.44905701779971463 9 257 394
1.4383800925716257 1.2203810552699503 0.4830566001043959 9 257 469
2.453523578381258 0.9635772327140111 0.4323695039220601 9 258 155
2.4239493195017516 0.9701590662001227 0.43315505659094966 9 258 164
2.138396967734519 0.8318650819088058 0.3113073361681178 9 258 246
1.9086794027058054 0.8005338422335682 0.2645345744227592 9 258 304
1.4886906007843668 1.2143777451782922 0.481130018613541 9 258 454
1.3393332594472653 1.1995185648925257 0.45425376816713836 9 258 492
1.3025331476844446 1.1956838153121663 0.4475204155059138 9 258 501
0.8692291856339147 0.7527199090596828 0.1131420734280002 9 258 528
2.591687514886633 0.9354793752587325 0.4264026186257983 9 259 113
2.500003031676683 0.9790497179694002 0.4437486465463667 9 259 140
2.341823439111843 0.9988092557416945 0.4380097739753497 9 259 189
2.312440915876046 1.0027744392046998 0.4371334818902326 9 259 198
2.2076678030770713 1.0260919865716192 0.4399164695797111 9 259 230
1.886133172981843 0.8085089158066814 0.26234998667497256 9 259 310
1.6275007486837434 1.2169848567574162 0.4950886719131071 9 259 415
1.3970613399545189 1.209068685943398 0.46310458333245497 9 259 478
1.3628699142039902 1.2080982218559928 0.45849031505102333 9 259 487
2.559310751498783 0.9633323964871305 0.4365967191470197 9 260 122
2.378560688000479 0.983846403820472 0.4286623194290631 9 260 178
2.1315752868982862 0.835690069959133 0.3039918514916147 9 260 248
1.53826441410181 1.2222803293444235 0.48420528692800313 9 260 441
2.4235947619310796 0.9910273951295481 0.43461031784323056 9 261 164
2.251109378062382 1.0319828221474183 0.44085738835522936 9 261 217
2.172751330143052 0.832819055628387 0.30247639380508895 9 261 237
1.9040648542624188 0.7984410455273934 0.24854273378738378 9 261 305
1.8657757058515134 0.8086745509101516 0.2506700653983227 9 261 315
1.6620689770086445 1.1262615426480096 0.4326304683447977 9 261 394
1.5660711991029777 1.2152608998760681 0.47904014284639906 9 261 432
1.4887528400443195 1.2179140282759002 0.4716557180376233 9 261 454
0.9386506821759013 0.7624486543729156 0.11151629790602269 9 261 515
2.160730922417553 0.8178319933147982 0.2868023086816056 9 262 240
1.9224687161594827 0.810138019906899 0.2536084519884645 9 262 301
1.4729633422589528 1.2231840037668607 0.4692847498662185 9 262 459
0.9171497568068872 0.7482338496187717 0.09438819263048237 9 262 517
2.5284545011115873 0.9926003691211276 0.4401327752048254 9 263 131
2.468260855988906 0.9983080023944755 0.4367084594264974 9 263 150
1.8815937936698954 0.807660832602962 0.2424356676311128 9 263 311
1.6531504654494964 1.1839845116010446 0.46115008921387957 9 263 403
1.5010870224165815 1.2229524064900548 0.468537992468929 9 263 451
1.4569068591715046 1.2216790940159636 0.4624558450301981 9 263 463
1.3941367637216333 1.2091658650501595 0.44682118699839735 9 263 478
0.8921175025518717 0.764751301577008 0.09681488552441331 9 263 524
2.5822847111861265 0.988347010892346 0.43983414198054716 9 264 114
2.556246600154185 0.9967019658763492 0.4422045718101568 9 264 122
2.4911619950017427 0.994972820242042 0.433300967944688 9 264 143
2.4520744431393497 1.0070853654592984 0.43657764127749465 9 264 155
2.42300858820567 1.0144073514244838 0.4379092467152059 9 264 164
2.131222985872195 1.3182862166893894 0.6023470392852556 9 264 263
1.664451393886515 1.0987436391751273 0.4026579267536754 9 264 390
1.5868495158807563 1.217564182517484 0.47131134557301846 9 264 426
0.9416298246887727 0.7646601474881554 0.09729092557686969 9 264 514
2.68481395822255 0.9681280449508844 0.4348961820626709 9 265 82
2.528035796384697 1.0030194604781368 0.4390605299828376 9 265 131
2.372281551323102 1.0180769739032107 0.4302931215537702 9 265 180
2.342783483859573 1.0348710511091257 0.4378094434740367 9 265 189
2.31373564528933 1.046450379267446 0.44194744331291 9 265 198
2.2111188726658364 1.0701404012204925 0.44523418127844394 9 265 230
2.1581755415954533 0.8261923670478404 0.27832016973148144 9 265 241
2.1346419336139877 0.8160858839684593 0.2688459804821508 9 265 247
1.63985118479368 1.2117690896536488 0.46994641281783767 9 265 410
1.5569226785391372 1.2225530826765192 0.4670995182270541 9 265 435
1.5241853482096286 1.2281340167169899 0.4668469675008968 9 265 445
1.436627352099334 1.2143752639334 0.4472910255387952 9 265 467
1.4046052171393644 1.210420203009672 0.44084771178485416 9 265 475
1.3490362545113541 1.205738528950343 0.4311023927871709 9 265 489
2.5187369167624896 1.006834753922124 0.4365333295955576 9 266 134
2.3234678865123684 1.0545499685727613 0.4445327603499538 9 266 195
2.3012114687963106 1.0501365468681911 0.4389359983964305 9 266 202
2.2723870054951356 1.0633636106239643 0.44420194728820284 9 266 211
2.2563080059566176 1.0618329367507802 0.44125378732121234 9 266 216
2.2246111550099266 1.07825380830613 0.4482836581944223 9 266 226
1.6574816734353064 1.1550824567401714 0.43072059406144403 9 266 398
1.6246151019062736 1.2177451458950523 0.4681585259299694 9 266 415
2.7308060621849997 0.9707403492872131 0.43433018515143584 9 267 67
2.5505532166914997 1.0236149929309941 0.44757824869384644 9 267 123
2.1401624997943975 0.8325540782978447 0.271228309641361 9 267 246
1.8855038459470375 0.8084234204582748 0.22441178101062742 9 267 310
1.4882548406999379 1.2106984132744176 0.443082544257031 9 267 452
2.594325264189872 1.0028501552115674 0.4351973677328538 9 268 110
2.514074907108781 1.0258080928958573 0.4407218740736534 9 268 135
2.4232777350311774 1.0324206627099852 0.4340859622966653 9 268 164
2.240852637706224 1.0679219785384615 0.43553871948458545 9 268 221
0.9346485281277761 0.7545128544075859 0.06817916660709566 9 268 513
2.498179409416346 1.0336219774418058 0.4400957431007526 9 269 140
2.273329858507115 1.0734780775999029 0.4392648453605821 9 269 211
1.5470464222902185 1.2215346840078716 0.44948522295810456 9 269 437
1.923907446242811 0.8189442211544236 0.22182684134913933 9 270 301
1.5860379603865082 1.2222404545207242 0.4507793041906698 9 270 426
1.496502044101458 1.2158847960701245 0.43553657541566393 9 270 450
2.6476085559231497 1.0173708873993754 0.43975524920638387 9 271 92
2.2456329553987056 1.0975159095861446 0.44416374441157114 9 271 220
2.217368916943329 1.1071936455744984 0.4471940204663709 9 271 229
1.913859867659138 0.8292114245030442 0.22274124856348054 9 271 304
1.6346516911234121 1.2140131349148913 0.44728521209134775 9 271 411
1.5368230293388279 1.2247756629596827 0.44247518116501316 9 271 440
1.3931260344221708 1.205095862828937 0.411528860921204 9 271 476
2.777235958606558 1.0079995197528986 0.44558929328202024 9 272 49
2.5653986767994943 1.0246899365532127 0.43064719652847594 9 272 119
2.2901537990343135 1.075794962867346 0.4311019757989598 9 272 206
2.1172761611503734 1.314761789968467 0.5711060063653737 9 272 268
1.6654385315227769 1.1090821246130411 0.3762758283440375 9 272 390
1.6470747579460052 1.1952271223582414 0.43218542051207476 9 272 405
1.6164866115564147 1.221491672995021 0.4461391594016564 9 272 417
1.475919237274827 1.2206288763248299 0.42816128541634635 9 272 456
2.4691047122672245 1.0622124523770422 0.44019977547054356 9 273 149
2.001650971450287 0.8307668292988579 0.22520312860017566 9 273 282
0.8932552303420043 0.7698509621582454 0.04613469982596863 9 273 522
2.8119493864492595 1.003660084219545 0.4392864369414762 9 274 38
2.800387596856946 1.0129860807669147 0.4441879446164063 9 274 41
2.599546083636767 1.042489944396061 0.4391853155511243 9 274 107
2.3942133405577213 1.0797462318582527 0.4388963856651553 9 274 173
2.366279874093742 1.0800541630375662 0.43561827863198244 9 274 182
2.153026009561499 0.833764422702802 0.24142665319282042 9 274 243
2.134585313240041 1.3147901575959104 0.5663954908083797 9 274 262
1.4985097209336788 1.2174676202871588 0.42076428603270255 9 274 449
1.4419672869711673 1.2216102110395843 0.4165231818958881 9 274 465
1.4140836469353857 1.2185305588215174 0.410946515665761 9 274 472
1.374757722401418 1.2036475943854579 0.39591071638476727 9 274 480
1.3618525380804434 1.2073638277665726 0.3968278304581021 9 274 484
2.5192919548946393 1.0789167092129004 0.4501273053169643 9 275 132
2.322265542665123 1.1016859014304525 0.44096650843571505 9 275 196
2.3097521819268714 1.104470784631292 0.44129888883330204 9 275 200
2.2816032500827736 1.1124217541834804 0.44319810581742103 9 275 209
2.2379343727055057 1.1246699542731935 0.4460853605004318 9 275 223
2.190718543747754 1.1284324814497877 0.4427333449952233 9 275 238
1.9615497708300416 0.827826797797977 0.20872467705501885 9 275 292
1.4828553550435446 1.2168283878982837 0.41432260643790375 9 275 453
1.392243511537484 1.202423748676573 0.39312289289397206 9 275 475
2.753830421018215 1.019138557830187 0.4348722007190928 9 276 57
2.7113755955772487 1.036167280455044 0.4411950108197604 9 276 70
2.6283373565323607 1.0529631750419919 0.44224621170911904 9 276 97
2.533269252825229 1.0690672565588517 0.44130795314484184 9 276 128
2.438225363796934 1.0784279640902175 0.4357511945963892 9 276 159
2.1347567296260523 0.8385411224572759 0.23311943774288713 9 276 248
2.007029632922656 0.8391726034188218 0.21746322997395717 9 276 281
1.902619404877349 0.8152428927549096 0.18791116827971122 9 276 306
1.5912917775000857 1.2248023786224347 0.42938546118097953 9 276 424
1.3639507686425372 1.2071748008383945 0.388667717384958 9 276 483
2.422149556233441 1.0921250291000706 0.43925431165044726 9 277 164
2.3967921319088266 1.1044990782847495 0.4445575435215099 9 277 172
2.3507994917748465 1.1037975192634917 0.43825596925871046 9 277 187
2.2010338293568505 1.135445637647909 0.4410766463972253 9 277 235
1.9972184490977483 0.82660368851313 0.20285354650927867 9 277 283
1.6404477829565214 1.2172975974769242 0.42645276195776893 9 277 409
1.5660794243829514 1.225435152453048 0.422641045907338 9 277 431
2.7850557660029374 1.0357470024886455 0.4425833304862836 9 278 45
2.6645760657250044 1.054156016406039 0.43998172415588654 9 278 85
2.4927239371057386 1.087359798354063 0.44106543307162327 9 278 141
2.4839889454210673 1.0851017559568121 0.4383965557584164 9 278 144
2.4399246519722713 1.1016315692566112 0.4442083724144037 9 278 158
2.1532224643234987 0.8250725729304063 0.21685101130782636 9 278 243
1.8875899845231794 0.8219994808870663 0.18097337292679438 9 278 310
1.5306541339512918 1.2207918158259334 0.4109226603916847 9 278 440
1.4366458162258282 1.217341841624513 0.3965945410161129 9 278 465
0.9522530061615226 0.7965278319230993 0.04452790243951421 9 278 513
2.6938751418885225 1.0560323466199324 0.4411854041993888 9 279 75
2.3511048208226133 1.1138482358780564 0.43749380906016566 9 279 187
2.338405503931807 1.1250693305472839 0.4436476234852469 9 279 191
2.239129807793335 1.132052705008998 0.4358148843271943 9 279 223
2.2334550881168567 1.1492657597895082 0.44701692856706554 9 279 225
2.15117644487019 1.3044129911019378 0.5440114326212226 9 279 256
1.3863551933198517 1.2101887535643716 0.38110685628433005 9 279 477
2.732555539593406 1.054128939911777 0.4409971945032143 9 280 62
2.642999002867738 1.0648358238539717 0.4369616551780551 9 280 92
2.5999381212663164 1.0744191426996086 0.4381054400689819 9 280 106
2.273876303011846 1.1436309164304863 0.44443385666339696 9 280 212
1.905335451175222 0.8097258627006285 0.16499548249314566 9 280 305
1.8821444705064447 0.8165640748653904 0.16677763810400292 9 280 311
1.5870728723443377 1.2277191358219819 0.41486089234529877 9 280 425
1.470781305620097 1.2208963458604785 0.3952081265200258 9 280 456
1.46165902280976 1.2178951504491446 0.3919516874008473 9 280 458
2.774558248997449 1.049799696871564 0.43956914418029047 9 281 48
2.755795912813675 1.0455989839586688 0.4342216122328011 9 281 55
2.571757950086757 1.086557143915507 0.43911003609444976 9 281 115
2.556867840231121 1.0873580623769215 0.43775176449556286 9 281 120
2.1933518921536215 1.1523445729691972 0.436300311807293 9 281 238
1.6384420614956698 1.224745687596928 0.4153798443539638 9 281 410
1.4057047699361016 1.207018418088253 0.37304078569660715 9 281 471
2.712177322109734 1.0712040621485497 0.4426836912322045 9 282 68
2.1487399021525757 1.305370751059463 0.5338376721800547 9 282 257
1.3871877714671914 1.202926179260646 0.3635963574936938 9 282 475
2.8035708349823256 1.070073553322568 0.4499597211338424 9 283 36
2.66794413621656 1.0785272813837663 0.4382864321075606 9 283 83
2.561300798335135 1.102261052539231 0.4411190967918517 9 283 118
2.3850108274838124 1.1348086994714763 0.4411015333144994 9 283 176
2.136330336658327 0.8416318809586629 0.20270674190375249 9 283 248
2.1266557962467894 0.8187113189998316 0.1853376740075059 9 283 250
2.0136318470707275 0.8279853953371477 0.1771768466791468 9 283 279
1.484028708799915 1.2216582884982914 0.3851292637854844 9 283 452
1.4437943946195522 1.2164042736634588 0.37620997138440915 9 283 462
2.510035762893644 1.1136630713950675 0.43866093118815863 9 284 135
2.3117498017790754 1.158627059569451 0.44451683932249075 9 284 200
2.2842956187205607 1.1563884965008784 0.43935607571653 9 284 209
2.183994532910529 1.1912336335209162 0.4508552813448037 9 284 242
1.938084406680109 0.8318722150907392 0.1652427115567816 9 284 298
2.832387810930312 1.0636015324050239 0.44162511228786716 9 285 27
2.790536109314331 1.0720817735135741 0.4421462802998275 9 285 41
2.750343249344147 1.0843625922502698 0.4455758086575241 9 285 54
2.534999433462573 1.1081038805712726 0.4341720950142389 9 285 127
1.5240065121191646 1.223024112671411 0.38308397642373526 9 285 441
1.42430533028007 1.2176931248102028 0.3662467048404736 9 285 467
2.4304176583618484 1.1438741857836634 0.44199747861899596 9 286 161
2.402484327985977 1.1584208904140554 0.44865885084546275 9 286 170
2.3845051811663223 1.1607562064860903 0.44795254659507266 9 286 176
2.1416171646671094 0.8524535126373913 0.19690977670867849 9 286 247
1.6230293250521899 1.219434799122576 0.3894507152561131 9 286 413
1.5663832703103626 1.2287094506790346 0.3885875453434462 9 286 430
1.549936203985249 1.2248727728010684 0.3836969758444102 9 286 434
1.3985577882366373 1.2077490276251635 0.35160949086239746 9 286 472
2.794252204745933 1.0828617743016313 0.44275966161631053 9 287 39
2.6919840848549903 1.1072859712219552 0.4466629189508542 9 287 73
2.604575556003166 1.1159220051336676 0.4412703845875712 9 287 103
2.5655625631381325 1.123772334155331 0.441713210238587 9 287 116
2.4491630768750983 1.1388602869987636 0.4370906641266932 9 287 155
2.248757170934447 1.1842932991349466 0.44300729301706454 9 287 221
1.5005036089888641 1.2226785353523253 0.37149706463172105 9 287 447
2.8309854968458583 1.0829698026552377 0.4439467039804801 9 288 26
2.6738794653819253 1.114609601753753 0.44574026547312706 9 288 79
2.5138273196247782 1.141918090604903 0.44404276788740127 9 288 133
2.3581060728621477 1.165769237766793 0.44044557584307853 9 288 185
2.3157176417409686 1.1760339975300813 0.4421663374477316 9 288 199
1.53726281684128 1.2237766726244335 0.37301663892474224 9 288 437
2.6480882358831646 1.118658683776097 0.44144945895412313 9 289 88
2.6365057559524887 1.119575954826978 0.4405644253126182 9 289 92
1.6099059392392294 1.2251743019738233 0.37957296606373303 9 289 417
1.5972908941071513 1.221339948188637 0.37513722453500464 9 289 420
2.7795637684659713 1.0926908864530305 0.4365565207580535 9 290 44
2.7195254540489486 1.116833574596065 0.4459229513268341 9 290 63
1.6420247873356 1.2181402033830067 0.3747073632798079 9 290 407
1.522389515096442 1.2256913137295973 0.36413521740484556 9 290 441
2.820138743463052 1.0977186260834004 0.44187484144478395 9 291 29
2.7627031698991216 1.1138145553541536 0.44579758453232765 9 291 48
2.734217588091319 1.106899972077209 0.43696552866119376 9 291 59
2.706005812408343 1.1280894511923916 0.44850215057284903 9 291 67
2.6720804239693847 1.129840996396232 0.4452082525760579 9 291 79
2.4209999668084365 1.1732939411845174 0.4428880908315336 9 291 164
2.4029125960347786 1.1789760772004907 0.44456709683232565 9 291 170
1.4816214371898657 1.2133654482926683 0.3455843406842505 9 291 450
2.575587595428835 1.1471426286641522 0.4409931970533423 9 292 112
2.5154842354890183 1.1638285805598636 0.44499268256771174 9 292 132
2.3733484614596283 1.186359243142025 0.4421596929077398 9 292 180
2.274638365874883 1.2075000529661977 0.4441809158903234 9 292 213
2.2477489333586873 1.2151392619568824 0.44609666290184724 9 292 222
2.019556010614558 0.8373020181925861 0.14096321195599382 9 292 278
1.4418711473910906 1.2240336519059591 0.34374543849973693 9 292 462
1.3908107717198779 1.2089187273172677 0.3258773504711243 9 292 473
2.698399896010094 1.1305277127427313 0.44177248124030033 9 293 70
2.4921007351404056 1.1698280012040165 0.44243441156140184 9 293 140
2.4118015872741037 1.1876987996739279 0.4445673207975367 9 293 167
2.3167494814320624 1.2030671195165124 0.4428764191735133 9 293 199
1.9754727141436235 0.8376516176344886 0.13034935346279597 9 293 289
1.962046836237421 0.8530376360080587 0.13973951989332667 9 293 293
1.5478792316776266 1.2287118719465444 0.35730629739039443 9 293 434
2.658268684160153 1.1485048825870239 0.4457049035673859 9 294 83
2.290149445540118 1.2139187408656258 0.443408863979885 9 294 208
2.2633508921040564 1.22070837939606 0.4447243469574129 9 294 217
1.6256060161481 1.225589696600324 0.3614495378594662 9 294 412
1.4847788531799515 1.2090460601334605 0.33017547069363706 9 294 448
1.4550561554551849 1.2296961953485217 0.3412278839351426 9 294 459
2.745048821183775 1.136571487466164 0.4450823627797942 9 295 53
2.604981009435214 1.1644452879444296 0.44638219035123927 9 295 101
2.440686809133476 1.1977106401989552 0.4483254480999532 9 295 157
2.3845833159273755 1.2118460669092235 0.4510260731882627 9 295 176
2.3523168188156327 1.2165530061845298 0.4500676066158402 9 295 187
1.5868045637837074 1.2360032507255947 0.3596545301783556 9 295 424
2.812790684200071 1.1230958974225174 0.4407396185662755 9 296 30
2.785236447998348 1.1325232470095414 0.44389812755348634 9 296 39
2.5476497250701273 1.1722187176916934 0.4405026114276578 9 296 121
2.290656568460477 1.2384745998464022 0.4540019673919429 9 296 208
2.234315993195114 1.23536195300076 0.4439722426070474 9 296 227
1.4265996727666985 1.2223627050495591 0.323472442829307 9 296 465
1.393096434067169 1.2051063026043725 0.30616309082653714 9 296 471
2.71670156675867 1.1543096426646653 0.4468296832759695 9 297 62
2.520671308688783 1.1839486387454543 0.44169875110255785 9 297 130
2.658729797198786 1.157296097199273 0.437306724865117 9 298 83
2.6300799474216996 1.1727130901037228 0.444773087641396 9 298 92
2.6214690395118825 1.1614790605248284 0.43524853394639273 9 298 96
2.5790093622182373 1.1766818906436258 0.44064341284521613 9 298 110
1.5924730885774034 1.228569632131713 0.34249287583201626 9 298 421
1.5387522216944685 1.2166900749357654 0.3262418745297788 9 298 434
2.7591725031517087 1.1447563362762099 0.43820002593357765 9 299 48
2.614903308792586 1.1686540544043482 0.43592158316970586 9 299 98
2.441257746304864 1.2089412956249188 0.4417560545003607 9 299 157
2.4147534261628114 1.2156609240555585 0.44307114516680035 9 299 166
2.3473167309073375 1.2290271112776026 0.44364023774215067 9 299 189
2.3032032940493528 1.2421286547133454 0.4472562351467644 9 299 204
1.6394949981533493 1.229747641708023 0.3457302601305199 9 299 408
1.6273158250489808 1.226711315744814 0.34177640950493693 9 299 411
2.679996692819887 1.1762729418800353 0.4469563788784592 9 300 74
1.5074109967030138 1.223200812589188 0.31823400627673504 9 300 443
1.4810055189195095 1.2093961676457616 0.3042348702282136 9 300 448
1.427772741403949 1.222883358679492 0.30687387254836285 9 300 464
2.567092426341585 1.2038003891260372 0.44805686027746106 9 301 113
2.545126272495341 1.2021359673822567 0.4437283673413024 9 301 121
2.350475744988908 1.238902932802414 0.44398672377158066 9 301 188
1.6229395310646126 1.2271626470867736 0.33314491804978963 9 301 412
1.5869446477994713 1.2204290695717523 0.3230491265826634 9 301 421
1.4075694614163046 1.216116596951721 0.2946581037155407 9 301 468
2.49242632483579 1.219543102853199 0.44568270169131874 9 302 139
2.4075153071586946 1.2474404676753992 0.45470816259232105 9 302 168
2.3242253418463994 1.2545220684311384 0.4483040588294862 9 302 197
1.5434234695184101 1.2302862294640966 0.32010152762407373 9 302 434
2.7689944252869028 1.182458892682166 0.4530951879875591 9 303 41
2.651936191441748 1.197885887842015 0.4481843453740435 9 303 83
2.502399839126948 1.2311656185384463 0.45215633605470673 9 303 135
2.4635837097719024 1.2283622984729181 0.44455026071269876 9 303 149
2.3876670404075124 1.2526133291628494 0.45211920660427896 9 303 175
2.347817985850861 1.249222669423857 0.44392367864550475 9 303 189
2.292544621350791 1.259072055275338 0.4435410372619528 9 303 208
2.240162393768277 1.2731817205643514 0.44678323086711536 9 303 226
1.962010039879543 0.8300065805927204 0.07290626208597417 9 303 292
1.6043132790137744 1.2128236446204153 0.31128993891192014 9 303 415
1.456556458846392 1.2301790828983976 0.30349295745760463 9 303 457
1.4179474234014389 1.2101668833917394 0.28292582516878295 9 303 464
2.6180869131053393 1.2053555454523694 0.445353262527163 9 304 95
2.492248583625279 1.2276466641507118 0.44436690184084404 9 304 139
2.3621993397424 1.2557731897795719 0.44720291587912064 9 304 184
1.9957994455799746 0.8360751113498779 0.07723515285364924 9 304 284
1.54176516793869 1.229376407992436 0.3106838472434008 9 304 434
1.4890346098494542 1.2149884530775759 0.2922955810194534 9 304 446
2.815815045436442 1.1735221299029601 0.44566323550783693 9 305 25
2.784682570816547 1.179635281590285 0.44587027434090687 9 305 36
2.678586977222288 1.1942774021048754 0.441869749914624 9 305 74
2.5459216082065455 1.2254332854678094 0.44663334540654986 9 305 120
2.3102668798052175 1.2770635302087383 0.4522729865693347 9 305 202
2.756641240553767 1.1866212578692936 0.4435150409681743 9 306 46
2.5341109284818013 1.2328880240179347 0.4469405544908478 9 306 124
2.7215482267360667 1.2081957401658212 0.4513092277942785 9 307 57
2.674185729440812 1.2057192087061968 0.44260229306522425 9 307 75
1.6208145515732018 1.2367552437104057 0.31487833491632156 9 307 413
