2.6775096448214337 0.8139002984906893 1.0074443507207875 9 101 212
2.637342651916316 0.8146843682971494 1.004506330675496 9 101 225
2.075093715314975 0.8041480701809314 0.9577559420342758 9 101 392
2.866294863396336 0.8257416383730345 1.0222719296787952 9 102 149
2.280553715918899 0.795615202750503 0.968261513831508 9 102 333
2.246079347899716 0.8082828656082306 0.9688831021633562 9 102 344
2.232481056982162 0.7973515540298124 0.9649364593334302 9 102 347
2.104898185324455 0.7973989975941835 0.9549116313290031 9 102 383
2.9744065871970653 0.8361051240654076 1.0305223799287888 9 103 111
2.73323339951388 0.8143826631887838 1.005692376057913 9 103 194
2.206007742845606 0.813774950027935 0.9638292170234631 9 103 356
2.145203360775538 0.8002985075563707 0.9554501185418494 9 103 372
1.9767265543515802 0.7890935741113267 0.9391560846481347 9 103 417
1.8865119702750621 0.7819131753829731 0.9301184059107364 9 103 440
2.724305614399319 0.8079416145579315 1.0001381822651685 9 104 197
2.416594962944805 0.7967192341614209 0.9726764583120161 9 104 293
2.3754959049639255 0.792654578183323 0.9683245624772764 9 104 305
2.3549525779290814 0.7916415787223139 0.9664208487398127 9 104 311
2.18474662566066 0.7911193687959872 0.9527464036725435 9 104 360
2.0370494615035453 0.7921420534463719 0.9412737680106628 9 104 401
2.01880816625536 0.7925976508301269 0.9399446285913812 9 104 406
1.9937820768308256 0.7947415326043863 0.9385260210330325 9 104 413
2.8675616777190815 0.8279057902727773 1.0138004537037861 9 105 149
2.342245884885902 0.8097070777741224 0.9669194628954443 9 105 316
2.301453658936083 0.8096578264066832 0.9636449665512167 9 105 328
2.9814329438401996 0.8377663113005744 1.0225581661390752 9 106 109
2.7736698179255033 0.81710937031931 1.0002814574866397 9 106 181
2.286078030359339 0.8161453004192534 0.9608308067059383 9 106 333
2.218896831665959 0.7992327979833063 0.9508644676685545 9 106 351
2.154651932861461 0.8080846995263342 0.9480909109640194 9 106 370
2.058357234655314 0.7912827365872455 0.9358144129224695 9 106 395
1.9473811337153095 0.7924003216802604 0.9271964400140136 9 106 425
1.927093725284914 0.7892959496609933 0.9247276063174478 9 106 430
2.7560259456021674 0.823037739721161 0.9973456466659565 9 107 187
2.329609604243512 0.8130648866933337 0.9601801005745958 9 107 320
2.1869402737538572 0.7986726502281523 0.9447411898296687 9 107 360
2.1397075742141354 0.8063521148522002 0.9430114221647519 9 107 374
2.111988546978232 0.7989946557405978 0.9387723868274316 9 107 381
2.0793758302714096 0.7989637934303109 0.936128804715618 9 107 390
2.029078459596465 0.8012968256069559 0.9326986023237216 9 107 404
1.9058376232010041 0.7851249010656183 0.9183459669000862 9 107 435
2.8430797484102457 0.8161407620242549 0.9994073801312697 9 108 158
2.2010526072713885 0.810065278391078 0.9455936157086383 9 108 357
1.9581895018001185 0.784021964707734 0.9187440079812239 9 108 421
3.0140370227328606 0.8361179080827479 1.0157613768973888 9 109 98
2.996343206675227 0.8435697750636346 1.0163670880877742 9 109 104
2.9037154746838074 0.8351070529274955 1.0064743888630667 9 109 137
2.8786159366063235 0.8200068668237916 1.0002695435322855 9 109 146
2.323578688243746 0.8158057850337306 0.9537893301835744 9 109 322
2.8375201560802035 0.830734096802171 0.9967795223054579 9 110 160
2.748082617412593 0.821504350297618 0.9868819093699897 9 110 190
2.4683768063620164 0.8230551898247942 0.9643504938077965 9 110 279
2.1918269752427753 0.7923376910432423 0.9331429321280124 9 110 358
2.078229458030182 0.797244033437946 0.9251763775077209 9 110 390
2.0266511466249613 0.7968748853570877 0.9208401326503597 9 110 404
1.987858655072574 0.7841842036490094 0.9141415898248669 9 110 413
2.989985628640202 0.8359204475144206 1.0077147124414159 9 111 107
2.289874059227746 0.8173215515306689 0.9447595220189858 9 111 332
2.2749251824831505 0.812923258424332 0.9423004370097225 9 111 336
2.2447373974201676 0.8163756075799438 0.9407712917049726 9 111 345
1.9308963529494114 0.7764858818808382 0.9001773333176295 9 112 427
2.9825391427917776 0.8366873515955564 1.0012613153567775 9 113 110
2.8510039228431263 0.8218045170453698 0.9860951302490417 9 113 156
2.6514380255461307 0.8319526590998034 0.9723176403142106 9 113 222
2.4625125778832433 0.8242583311467275 0.954394002109267 9 113 281
2.4326107844466356 0.822581436422833 0.9514276646989468 9 113 290
2.413984034959139 0.8120211024364965 0.9468954426305053 9 113 295
2.3871926275162463 0.8278041505563762 0.9491139203186825 9 113 304
2.375804140043778 0.8215208563040439 0.9463917983634699 9 113 307
2.342667837949084 0.8095057388316809 0.9402393390288939 9 113 316
2.252076358688111 0.8057083340331432 0.9316143507954625 9 113 342
2.9059433727445185 0.838001599245668 0.9921804405234931 9 114 137
2.8804356152204 0.8291663088420929 0.9875347084015059 9 114 146
2.3311439585757525 0.8038968740391275 0.9343234048403262 9 114 319
2.317842818955072 0.8193521166752287 0.9375953726207524 9 114 324
2.276345504893997 0.8053859939508863 0.9301531458967618 9 114 335
2.168932363868049 0.7997237778655006 0.9195431610880076 9 114 365
2.035616272902935 0.7843122979224006 0.9039948997294525 9 114 400
2.6241356601044883 0.8337771757143679 0.9641621215253224 9 115 231
2.453400240211898 0.8267064219554667 0.9477587009392281 9 115 284
2.3857741701495065 0.820273567900023 0.9402242292994248 9 115 304
2.242879358556607 0.8103207957987555 0.9253432820351613 9 115 345
2.2301160225806957 0.8145078330747659 0.9254637295847876 9 115 349
2.1104467613011693 0.7977648614484625 0.9106003454774029 9 115 381
2.090336333175159 0.7926559317017436 0.9074470680225565 9 115 386
2.066897556446208 0.7792737488853165 0.9016507045097748 9 115 391
1.9782018723727766 0.7821283827651928 0.8949934800181036 9 115 415
1.9526645035756351 0.7844374397173919 0.8935014239568722 9 115 422
3.0137985705732127 0.8465044590958533 0.9976114667632769 9 116 99
2.988986296588819 0.8435845068175274 0.9946713346784417 9 116 108
2.6708821825908933 0.8307865033343287 0.9640563975184645 9 116 216
2.5060176967576817 0.8283596268280624 0.9493980090596209 9 116 268
2.4007465015125105 0.8111051297843301 0.9355257710228049 9 116 299
2.1754906634383295 0.7873299104885236 0.9096194056222571 9 116 362
2.154690583844313 0.8005885915830004 0.9116675546593767 9 116 369
2.4930298204096313 0.8271326992746224 0.9446665279550768 9 117 272
2.4526927596122987 0.8210164006756975 0.9394651111510032 9 117 284
2.412253766568578 0.8007918642853942 0.9301767237795596 9 117 295
2.2401839205284704 0.8012044870292967 0.9156499432114016 9 117 345
2.2167870380391075 0.8171214596790182 0.9182596209857866 9 117 353
2.053527382819812 0.78404610617967 0.8948023056068863 9 117 395
2.2666173447063405 0.795298618022912 0.9127536174785439 9 118 337
2.1376900574470907 0.8041779941040261 0.9043058947549005 9 118 374
1.9695559124443183 0.7814564546725904 0.8833136868462528 9 118 417
1.8689486950013516 0.7641245362412055 0.8696659916546037 9 118 441
1.8430949905064207 0.7675312668229588 0.8684448971442047 9 118 448
1.826347036967276 0.765646269730843 0.8664638704538814 9 118 452
1.7989362290892195 0.7664143572522324 0.8643421863450416 9 118 459
2.6531184518794566 0.8298128477291953 0.9526414097281874 9 119 222
2.6224315537837355 0.8374482270175385 0.9522366081871336 9 119 232
2.4551698327448435 0.8145650718290303 0.9311589535248646 9 119 283
2.426030600577019 0.8187918812788215 0.9298899703837054 9 119 292
2.225754482392801 0.8121856936753558 0.9107356908623505 9 119 350
2.198428831944203 0.8038674302414062 0.9059522768610164 9 119 357
2.047798851209947 0.7798692845451947 0.8859785443655274 9 119 396
2.012675237303341 0.7765148826881498 0.8819768972671653 9 119 405
1.982568452713119 0.7769509589016135 0.879515640739098 9 119 413
2.9927595868645405 0.8536127713609754 0.985778850658038 9 120 107
2.982054613413548 0.8492276536554411 0.9835629883701684 9 120 111
2.4999470920175186 0.8261952744651389 0.9351173913492564 9 120 270
2.310950126606017 0.8047474996840343 0.9124704552809555 9 120 325
2.6225007866616115 0.8315166326185228 0.9440381617917548 9 121 232
2.4193838952395534 0.8176651165177169 0.9222934433180543 9 121 294
2.153424301372085 0.798321797080364 0.8934639253230661 9 121 369
1.8431361089995004 0.7698863394131157 0.8580917789993501 9 121 448
2.4391286784880655 0.8153907886573202 0.9199835027755093 9 122 288
1.9892588368523114 0.7765403109708842 0.8691373149162736 9 122 411
1.8273979223340513 0.77861509352032 0.8556245423705324 9 122 453
2.3608139298747215 0.8113996961658723 0.908558890978744 9 123 311
2.180082945917012 0.792088769675825 0.8869154580228464 9 123 361
2.046363493097583 0.7781546628391585 0.8710078596447393 9 123 396
2.8917549342779547 0.8625822483458276 0.9673988764535149 9 124 143
2.654808363816654 0.8322259395311458 0.9373556981230146 9 124 222
2.490818810679603 0.8258642952436539 0.9209776152201825 9 124 273
2.383255979182964 0.8044592469034573 0.905041418846342 9 124 304
2.277282391009242 0.7957042653176987 0.8930579240562577 9 124 334
2.253294858714723 0.7856166975845498 0.8879024209914448 9 124 340
2.227814901835227 0.7959704887649328 0.8887760658054018 9 124 348
2.0717845383290476 0.7765897293671684 0.8691760458008004 9 124 389
1.9096380886959166 0.7717766018585077 0.8534271918627767 9 124 431
2.7601173976129747 0.8507117882850057 0.9490484338901255 9 125 188
2.6680347081373004 0.8395334229340081 0.9374990919938136 9 125 218
2.861445343772953 0.851079957090024 0.9550149373517824 9 126 154
2.496788195111443 0.8195949115231191 0.9129365671240446 9 126 271
2.343642882631535 0.7955893083682435 0.8919768584074248 9 126 315
2.2200943668105735 0.7942731241460501 0.8805718754144675 9 126 350
2.179905695517074 0.792251339001278 0.8763760328933627 9 126 361
2.1640728422906967 0.788176524282062 0.8737233642259778 9 126 365
2.9073846337086993 0.8651883952450354 0.9603235951550215 9 127 138
2.7699121298600025 0.8453440173834719 0.9419325787697685 9 127 185
2.4318103331092096 0.8083576893791007 0.9003265246139918 9 127 290
2.145285098992537 0.7975742093951284 0.8713735294998642 9 127 371
2.1155822769554 0.7859473271113513 0.8651488833329615 9 127 378
1.998072778542155 0.7731468427231591 0.8507050978703866 9 127 408
1.8953588718055845 0.776683597336322 0.8425963915557245 9 127 435
1.8101508833099547 0.779867994755393 0.8359464904957801 9 127 457
2.466191265095746 0.8124508462979942 0.901279571040071 9 128 280
2.385392458562732 0.7965527881028416 0.8891074366088509 9 128 303
2.3553992827250556 0.8010153667127828 0.8877862559627225 9 128 312
2.2359844945610394 0.7877251996256514 0.872945178659047 9 128 345
2.13373670861123 0.7961651172882773 0.8663517702637799 9 128 374
2.106281285301531 0.780995128506738 0.8592023990133367 9 128 380
1.8472140899496006 0.7754511730632379 0.834189419681457 9 128 447
3.0073149971129434 0.8662976752296108 0.9635148039098024 9 129 103
2.8889540608530537 0.8537815136850397 0.9489324409530269 9 129 145
2.8424985359785397 0.844357268386291 0.941809118624937 9 129 161
2.4823068479619357 0.8080801908860562 0.8979947106679664 9 129 275
2.3114652185676756 0.7916357842766926 0.8774496620526104 9 129 324
2.215546736947956 0.7795307965912013 0.8650235019762308 9 129 350
3.032739205745326 0.8674378264453995 0.9631254883337979 9 130 94
2.978225364543854 0.8560434597871802 0.9546178856787061 9 130 114
2.4382945037319703 0.8046970556014701 0.8895490403099977 9 130 288
1.4302321980829746 1.0645037392354468 0.8790552192519628 9 130 602
1.4091551983444117 1.0717446629013958 0.8794002571232487 9 130 609
3.0004802717946237 0.8629708560235387 0.9557323700218496 9 131 106
2.8665666045481775 0.8533995322008645 0.9405044664097604 9 131 153
2.6604644658430856 0.8378505309356319 0.9168109407687699 9 131 221
2.5185192108214727 0.8033458686102593 0.893024556368931 9 131 264
2.237026966191794 0.7915932060536592 0.8636407356917397 9 131 345
2.160165049693425 0.7887732663030489 0.855739568528608 9 131 366
2.0143486807824926 0.7871509778510744 0.8419199679796887 9 131 405
1.3916750660146147 1.0707552976741754 0.874090269472769 9 131 613
3.0845036702176496 0.8614865174648187 0.9598970109876178 9 132 76
3.0123137187308613 0.86250612533131 0.9535969792919156 9 132 102
2.4085555039820994 0.8074298105974533 0.8808307714922124 9 132 297
2.3860478472265525 0.8140267194173354 0.8808484518700239 9 132 304
2.2870828376295775 0.8057627719875036 0.869162096328344 9 132 332
2.191582844427332 0.7846774388889148 0.8537465960879698 9 132 357
2.09518232628224 0.7827516167596413 0.8442960640647466 9 132 383
2.068147548882822 0.7805087756793241 0.8411082710916004 9 132 390
1.8159893237549283 0.7874397543760083 0.8201659339201673 9 132 456
2.9026239062274444 0.8524469847315892 0.937218093627485 9 133 141
2.6699147468511066 0.8277019128961562 0.9079130200758574 9 133 218
2.6542750030936477 0.8296018646687067 0.907074542871263 9 133 223
2.4919857074531047 0.8012756931853431 0.883123652937662 9 133 272
2.435108092737101 0.8034788491965219 0.8785803154225817 9 133 289
2.2190159444829956 0.7795780351962389 0.8510749189313666 9 133 349
2.1785294747495616 0.789651700885633 0.8505408478340273 9 133 361
2.124892670786488 0.7830825314056438 0.8435115516694385 9 133 375
2.057948290668711 0.7838074158541677 0.8375710464565191 9 133 393
1.9513546777399393 0.7754784757245674 0.8251018251063039 9 133 420
1.9299870750542905 0.7797993978752722 0.8245038925173902 9 133 426
1.8468727196009886 0.7785731240469542 0.8164535421350736 9 133 447
3.0594429396759777 0.8706571230727604 0.954408924842864 9 134 85
2.4042608802087675 0.8018694808520959 0.8717644356231224 9 134 298
2.138395592548326 0.7904201774530764 0.8434841769702504 9 134 372
1.9110996426700617 0.7733539281713202 0.8169831754019967 9 134 430
1.4015434635389927 1.0762332127501577 0.8664773351058384 9 134 611
2.386004212077556 0.7961524237007163 0.8647621925757547 9 135 303
2.357114371604822 0.8063227406935716 0.8653384635342183 9 135 312
2.3180613553391076 0.8031175004383897 0.8606747371347371 9 135 323
1.985994899817479 0.7763988666921835 0.8211911214626939 9 135 411
1.427715273122114 1.071368264123813 0.8639284935360443 9 135 603
2.994974488822127 0.8618246515915926 0.939423188311033 9 136 109
2.702044836530136 0.8214903870419785 0.8990065115017387 9 136 208
2.6706416395076635 0.8233451402774667 0.8966684692739542 9 136 218
2.6419540315574084 0.8215446087659188 0.8934042961222102 9 136 227
2.430322004355523 0.7937564469981204 0.8646410711132462 9 136 290
1.9499607250308952 0.7742361666285986 0.8134154112385997 9 136 420
1.8323131675351365 0.7757002640114337 0.8028856337364236 9 136 450
1.4245548562891885 1.0410275287056852 0.8504117320283546 9 136 597
3.0286952177880133 0.8658412490484879 0.9407904576671398 9 137 97
2.863942890816139 0.8443198338101068 0.9183215815124484 9 137 155
2.6865920063221007 0.8199793421414527 0.893753587258205 9 137 213
2.2781456361491697 0.798563001634214 0.8484187832406502 9 137 334
1.9996076076886724 0.782530525096647 0.8170394213131222 9 137 408
1.847867061378536 0.7756327217665377 0.8005408897158264 9 137 446
1.4111065921389938 1.0678796438673026 0.8543775899017779 9 137 606
2.872832430932166 0.8525674769370601 0.9186518476614889 9 138 152
1.9684063730099846 0.7732339516183317 0.8073551213695819 9 138 415
1.8812885323004496 0.787970255247243 0.8039402526468351 9 138 439
2.991553288533911 0.8572453719559572 0.9282626220082622 9 139 111
2.043969160519144 0.7799999535627797 0.8130044865048096 9 139 396
1.8110281644414026 0.783478317958695 0.7920466086519145 9 139 456
2.7903664790737848 0.8365556763916866 0.8991232013218052 9 140 180
2.479322975000146 0.7981528248848981 0.8567962041882189 9 140 276
2.112436089480723 0.7924491038709371 0.8199398781996927 9 140 379
1.4027541076396948 1.0660199650135107 0.8425948099906466 9 140 607
3.029101098195052 0.8598030789474627 0.9264391365809677 9 141 98
2.892475568821724 0.8443556375419636 0.9082260680505629 9 141 146
2.4346932898720834 0.7951001595066391 0.8480316054819979 9 141 289
2.159993948402176 0.8021415801250529 0.8240585746383443 9 141 367
2.041339565682174 0.7743117744881598 0.8034567958114436 9 141 396
2.0286392642568827 0.7903267528590672 0.8075560759007985 9 141 401
2.794358064256197 0.8278214645289499 0.8900547704265747 9 142 179
2.2362229136714866 0.7898459490477816 0.8236701046726949 9 142 345
2.1045268369931573 0.791986761267659 0.8117111908595058 9 142 381
2.8729301418528723 0.8404447959973838 0.8985961984533274 9 143 153
2.026524638724436 0.7766256972645409 0.7953440024524714 9 143 400
3.0340709641934365 0.8571267752374745 0.9166399900517452 9 144 97
3.0033306967674434 0.8539266163223731 0.9125740653958451 9 144 108
2.4893016120051534 0.8141620281009143 0.8492233815376616 9 144 274
2.3078255027241448 0.8030997853831514 0.8278619309930069 9 144 326
2.266394732894497 0.7946695520755696 0.8209928648267139 9 144 337
2.236957691240927 0.8049527266198944 0.8216028503013146 9 144 346
2.211526541995239 0.8162116527749936 0.8229311988223258 9 144 354
2.192647301473181 0.8021703645023655 0.8163596573877381 9 144 358
2.9268008818218463 0.8449139955507536 0.8988876479094513 9 145 135
2.9006993092363773 0.8395837112482121 0.8945319417199638 9 145 144
2.497627777669287 0.8235982646887468 0.8497698430296484 9 145 272
2.6868767705599907 0.828366331281202 0.8665008518552918 9 146 214
2.66445265245429 0.825084994534186 0.8631828597850925 9 146 221
2.0776568849067973 0.7820597925553487 0.790969374882553 9 146 387
2.8840146862563514 0.8369854204300569 0.8855144080794233 9 147 150
2.247370336750126 0.8163656091017433 0.8157253972904586 9 147 344
2.932407482100066 0.8323934918315197 0.8854584377242767 9 148 134
2.2018078689691714 0.820566109415725 0.8090716543101815 9 148 357
2.1557166651762927 0.8133610346666871 0.8020258928647985 9 148 369
3.0512663861755653 0.8564092075518448 0.9023463637400466 9 149 92
2.999380160564794 0.8398611687665996 0.8914515937452652 9 149 111
2.1717481946412653 0.8287803303361376 0.8053178858254324 9 149 366
2.106691031191598 0.8007803556447779 0.7891442130334787 9 149 381
2.4040724346867495 0.8089920646730173 0.8180130131698808 9 150 299
2.2763536202748194 0.8309597464839111 0.812909629446551 9 150 337
3.0777347533053527 0.8567467847593635 0.8987932949536489 9 151 83
2.528203118265859 0.8190007447335514 0.8304232028318521 9 151 263
2.0444959516487113 0.7874215780651908 0.7708191227277392 9 151 396
2.311521900575026 0.8442058441941296 0.8139715514683866 9 152 328
2.201934923496612 0.8332781999676744 0.7990751768027731 9 152 358
2.1302176017638783 0.805093172706357 0.7819192090471146 9 152 375
2.4761832237396586 0.8274188269136638 0.8211623910448266 9 153 279
2.3346831624623046 0.8391426091128156 0.8109820366386546 9 153 321
1.9168657812413334 0.7904579566821488 0.7514307407430232 9 153 429
2.4892768170306936 0.8238639333044702 0.8177254819499947 9 154 275
2.446091466793411 0.828743446913413 0.8150682891475355 9 154 288
2.4078601982448937 0.8255468445542238 0.8100409453386896 9 154 299
2.3810082689821197 0.8449371625192521 0.8142097540590902 9 154 308
2.2438227691591397 0.8536527788514168 0.8033540487297959 9 154 348
2.1705907367055435 0.8376570858129047 0.7902106338570025 9 154 367
2.1001006416304846 0.8053372375930445 0.7715366277998943 9 154 383
2.034993391600291 0.7843873088270115 0.7574566920532966 9 154 398
1.924349370940348 0.7816107529333693 0.7452114425272485 9 154 426
1.8089682606736932 0.7839235424209312 0.7342954672464269 9 154 455
2.441901026174075 0.8421955247087602 0.8159309088241578 9 155 290
2.2891115304568452 0.8518858991719771 0.8037816621036855 9 155 335
2.072099698889705 0.791600524304084 0.760034412357015 9 155 389
1.676011309814694 0.8852698075886827 0.753062313679022 9 155 502
1.6616618154258813 0.9132591071071801 0.7616089863257725 9 155 510
2.9304976687345903 0.834509159307103 0.8598269137884522 9 156 136
2.404640253841388 0.8423874037913783 0.8086696531904498 9 156 301
2.2799611835400033 0.8441324239000831 0.7964962416566971 9 156 337
2.225139629439324 0.8509416143617339 0.7933163867403799 9 156 353
2.006019325277443 0.7903059742819356 0.749013017799919 9 156 406
1.7977169604579057 0.7796773807758566 0.7238040515218238 9 156 457
1.77643986530762 0.7859472831487446 0.7238743090182206 9 156 463
1.5343320898816064 0.9574401210213628 0.7606896501188021 9 156 549
2.8856477205771465 0.841374796808096 0.8543855738428245 9 157 151
2.1414955783354643 0.8071480190378164 0.7652628383945804 9 157 372
1.8782085853613553 0.7790544310078187 0.7279523823578711 9 157 437
1.84065659417177 0.7766976601731757 0.7232274052870579 9 157 446
1.8207554099909695 0.7855494829519991 0.7243747537479379 9 157 452
3.0095381317516323 0.846206584758018 0.8656654453361599 9 158 109
2.9227528996094216 0.8327298223147703 0.8517770392410776 9 158 139
2.6975394917845885 0.8322643629526436 0.8282748470890122 9 158 212
2.659303746199515 0.834958707777326 0.825292514947033 9 158 224
2.38190743546056 0.847477169268759 0.8011019599812872 9 158 308
1.673893194174215 0.8911545584136515 0.7436198864802098 9 158 503
1.6685445030969137 0.9450907045794721 0.7626646757286468 9 158 513
1.6577180666355744 0.9526554732927448 0.7642918436190386 9 158 517
1.6436903485369798 0.943481513234177 0.7595049441281666 9 158 519
1.6210490991009614 0.9685984742721625 0.7662860394509767 9 158 529
1.6017232938523194 0.9636653039392669 0.7624912240776771 9 158 533
1.5800287416581034 0.9612697219407447 0.7593730874929929 9 158 538
1.4777503211460101 0.9867181895957851 0.7580238972910149 9 158 568
2.2807597468829384 0.8470601516516341 0.7868815756866582 9 159 337
2.2693031603296347 0.8440708199459954 0.7845974056304406 9 159 340
2.254031012402819 0.852737321152901 0.786173466491408 9 159 345
2.003885860865065 0.7962333685284291 0.7395021667348749 9 159 407
1.993712718650622 0.7997378459829307 0.7397234480662969 9 159 410
1.9187553711262326 0.7901625627287567 0.7284250967404807 9 159 428
1.5528140104686792 0.9746523382287706 0.7577262585981147 9 159 547
1.5157515938052586 0.9897139553474366 0.7593703976153118 9 159 559
1.2882491988144458 1.0278271339626623 0.7496147289245614 9 159 622
3.0739358422252794 0.8458880655692194 0.8657743371143379 9 160 87
3.0438550184907793 0.8368409400951664 0.8593081524901722 9 160 98
2.5255871453557424 0.8588247121689792 0.8131992325352 9 160 266
2.4406857442458167 0.8682801566610951 0.8077950343451235 9 160 292
3.0052538082953317 0.8479803713271854 0.8561019501433573 9 161 111
2.674146472341156 0.8536097637056195 0.823409808562658 9 161 220
2.6673772146264976 0.8465498423553979 0.8200937037534307 9 161 222
2.31233859124576 0.8464747162314912 0.7827834497571167 9 161 328
2.2206795783697313 0.8605365753267864 0.7783474919348143 9 161 355
2.052930621486521 0.7944290413759487 0.7363370732467005 9 161 394
2.037504938771567 0.7943808985153049 0.7346994597890868 9 161 398
1.952917940424487 0.788223177842776 0.7235446624061393 9 161 419
1.6331912183276178 0.983394741759084 0.7619928330298343 9 161 528
2.4938375963362565 0.8651303865705442 0.8052526265794695 9 162 276
2.3366178755421463 0.8595958396556798 0.786616264923141 9 162 322
2.30478334749429 0.8578095451345567 0.7825958018804618 9 162 331
2.0725949406330986 0.7961827909288888 0.735246485894901 9 162 389
1.9268638504873568 0.7839068508287974 0.7153214828417325 9 162 425
1.8687387547491905 0.7799254906789737 0.7077137155834292 9 162 439
1.6911891157602401 0.8639021535243054 0.7201337139529921 9 162 494
3.047723306975006 0.8424228035601293 0.851991350401002 9 163 97
2.8000028101593686 0.8429582462844707 0.8259447291800702 9 163 180
2.460360205873231 0.8634558584597427 0.7976008610930694 9 163 286
2.4294722032751137 0.8604727755139232 0.7932161382755958 9 163 295
2.4125628314657166 0.8608006996410658 0.7915468249522553 9 163 300
2.391748800690486 0.8591905624060838 0.7887412904229193 9 163 306
2.37245133658688 0.8649618627989377 0.7888482732943307 9 163 312
2.2925548097194923 0.8644743868828653 0.7802014221922646 9 163 335
1.7568400102771735 0.786339093447709 0.6943126829687607 9 163 467
1.634153009989821 0.9924101406629247 0.7581381539269041 9 163 529
1.3458680868465136 1.0360140521099168 0.7438498240986304 9 163 609
1.2699755713954335 1.0665354693203735 0.7471874673071723 9 163 634
3.0737166132437785 0.8452402662468632 0.8525449088092145 9 164 88
2.697869242496221 0.8660822075440802 0.8203556522654372 9 164 213
2.0056837540577455 0.7941213886786276 0.7197274689437734 9 164 406
1.944921536333078 0.7811390036625572 0.7083964624602119 9 164 420
1.9066559449091298 0.784846053812781 0.7057131645704549 9 164 430
1.8319443796314303 0.7811485105725895 0.6963766705641276 9 164 448
1.5722799911675498 1.000796765404284 0.7510449234315065 9 164 546
1.5166379653900322 1.0272383501003162 0.7550310348058147 9 164 565
2.898490350181 0.8438950640210983 0.830050773622843 9 165 148
2.5304762902826 0.8628526621275898 0.7978511475839295 9 165 265
2.1114801359328084 0.7996180219163034 0.7292480712031232 9 165 379
1.8102598806099408 0.7796890598119328 0.6895436857498856 9 165 453
1.7802498618006848 0.8007100806782039 0.6942522872994149 9 165 463
1.4835938270528248 1.0420100419152118 0.753414903394192 9 165 576
2.8714285906399417 0.8502615653195462 0.8262069594588247 9 166 157
2.667027023489184 0.8672653749527548 0.8106965551666645 9 166 223
2.6547128473239114 0.873231170800405 0.8116324723590309 9 166 227
2.5087028691748836 0.870869770378752 0.7950617064355444 9 166 272
2.494198282354782 0.8628715069710771 0.7904769839481046 9 166 276
2.2545491111934077 0.8673654126309314 0.7664470216986987 9 166 346
2.2038210509745526 0.8761183073353549 0.7643134022888938 9 166 361
2.1655229905941273 0.8479238176186628 0.7495296355238752 9 166 369
2.0281692483136142 0.7931105325625767 0.7140350156799032 9 166 400
1.4422611247092534 1.070442661301547 0.7560979822830105 9 166 592
1.303763688158614 1.0923284372168132 0.7495114932035412 9 166 631
2.464293217689452 0.8632565537957941 0.7838888352537166 9 167 285
2.4464811525744894 0.8580242742800668 0.7799775026213865 9 167 290
2.3972536606006978 0.8509446744176143 0.7719754783332362 9 167 304
2.3255233351775004 0.8562289666783887 0.7662500291455879 9 167 325
2.2249606115455673 0.8754521607880406 0.7627177033944688 9 167 355
2.1063425248368923 0.7967283576075384 0.7199781108803067 9 167 380
1.6572124042147425 1.0070526935158872 0.7515520157505877 9 167 525
1.6523778106622746 1.0169532455330446 0.7547969147136342 9 167 528
1.633690518421842 1.023535729355887 0.755285660112786 9 167 534
1.4895732123456682 1.0661593159534104 0.7559580202509387 9 167 579
2.9350090456387257 0.8549603161813537 0.8281750688382141 9 168 136
2.285654592589802 0.8649390803694963 0.7616528767975983 9 168 337
2.2378723787282544 0.8594481962039666 0.7543778852658176 9 168 350
1.6847521541943287 0.8985872782111202 0.7094282695769578 9 168 500
1.5733465223497638 1.0537589727197252 0.75668634523266 9 168 555
1.4788030093992948 1.0685928946328953 0.7521168270137376 9 168 582
1.3716896621060137 1.1106931441347456 0.7566102493795336 9 168 618
1.3316065395501395 1.1110109941582933 0.7523900151216497 9 168 628
3.0057925917560375 0.8572311372528973 0.833421096652153 9 169 112
2.2941583251895783 0.8703005286042536 0.7610206445391775 9 169 335
2.256111586340217 0.8730143938539676 0.7579241147873653 9 169 346
2.12567147154481 0.7983900826134158 0.7150596673341887 9 169 375
2.063384138281848 0.7955590993481882 0.7071953632733484 9 169 391
3.0326412434138055 0.8559434439485929 0.8325624222203881 9 170 103
2.899648209405332 0.8630110660170947 0.8207592023195178 9 170 148
2.434967852290339 0.866827495307005 0.7714564509713648 9 170 294
1.4398300194106786 1.0951569199932423 0.7508856333939937 9 170 597
1.370381463833912 1.1114729386549431 0.7495973151834356 9 170 618
1.3215588757068788 1.1197655261167865 0.7474645755042721 9 170 632
2.4955765667095156 0.8659229292231359 0.7742017490522415 9 171 276
2.383199390541555 0.8640324000532398 0.7611347351258109 9 171 309
2.32716247400378 0.876049367846911 0.7596481487037816 9 171 326
2.1934052075595356 0.856367492757041 0.7373303612318209 9 171 362
2.14196365821621 0.8133155167221648 0.7149774198611278 9 171 372
2.0711997622938414 0.8068486292564381 0.7047014931056212 9 171 390
1.4380429387524525 1.1078687651049473 0.7520301424962221 9 171 600
2.8001851794229737 0.8802904921438057 0.8098469624525942 9 172 181
2.673199824925423 0.8859097839531109 0.7980410822604633 9 172 222
2.2775217524527136 0.8612125298322437 0.744794351274124 9 172 339
2.236925163273418 0.8568821755366947 0.738630640635378 9 172 350
1.6457090974300903 1.0453560539280393 0.7469658487510686 9 172 534
1.4315624218367602 1.1284640691310288 0.755772569693149 9 172 606
1.3520798520229538 1.1328470133479709 0.7487206702124672 9 172 627
3.07688910263133 0.8601094364879374 0.8292036895426492 9 173 88
2.4671470346666595 0.8743664864908938 0.7672881433984986 9 173 285
2.4348434364565694 0.8641406517153429 0.7597041473360747 9 173 294
2.327888103958875 0.8647995704991276 0.748121602380717 9 173 325
2.2167350687511185 0.8501619097791275 0.7300792639798003 9 173 355
2.2066185092309 0.8526790677137297 0.729945812926156 9 173 358
1.6471143091247042 1.080325870664832 0.7572242546105523 9 173 540
1.5867277671901516 1.0915061033243374 0.7549207787858973 9 173 558
1.567238791614188 1.1107737427388242 0.760314620135621 9 173 567
1.4635390292101886 1.1211961066832905 0.7529190068727915 9 173 596
2.788814182483808 0.8785703370169642 0.8011648126106921 9 174 185
2.4783102070813006 0.8799593446739711 0.7671875042430663 9 174 282
2.3537708510103252 0.8706110862849203 0.7496583572674522 9 174 318
2.2954930603853865 0.862062697436857 0.7398117447292488 9 174 334
1.6374276126462766 1.093985906448274 0.7579863521031889 9 174 545
1.3865136168724455 1.133368298130731 0.745598563322758 9 174 618
2.900707674982564 0.8830073414786093 0.8120279448764423 9 175 148
2.874478573454976 0.8732219662352381 0.8052260279272063 9 175 157
2.667587772446789 0.8815218412543999 0.7854076361339384 9 175 224
2.536238728598309 0.8652686639548841 0.7643071607047445 9 175 264
2.4912706222062897 0.8764574308061517 0.7637139707802046 9 175 278
2.4047185450735693 0.8663292061426768 0.750040126091495 9 175 303
2.1808385041722556 0.8414353384083986 0.7151868906913342 9 175 364
1.5021133005799117 1.14560332057015 0.7597798869954884 9 175 591
3.064810763500949 0.8753573705584263 0.8240581573843239 9 176 92
3.009804854281861 0.8794571491990171 0.8195197444913463 9 176 111
2.3897244392705046 0.8602281852354716 0.742328931337722 9 176 307
2.270671297817281 0.8237039885555801 0.7144503516362912 9 176 338
2.213043144412522 0.815035372115791 0.7045395399231377 9 176 353
1.6542389060160314 1.039393938632513 0.7311017980103768 9 176 530
2.9366464815853566 0.8886507936160013 0.8116621560537782 9 177 136
2.4377349839150075 0.8585848875784963 0.7434511756478704 9 177 293
2.1019786353320877 0.7994168949053337 0.6819859787117403 9 177 381
1.5885761331504384 1.1273357159243491 0.7552171793953243 9 177 564
1.5518163215278535 1.1383977839201724 0.7554978895585795 9 177 576
1.53729094529944 1.1439274631196708 0.7560718562564291 9 177 581
1.4627322183506402 1.1643943771374443 0.7558539021543844 9 177 605
1.3520867640004768 1.1593600763816474 0.7413793652183499 9 177 632
3.040172998721297 0.8950488460762116 0.8226271592927559 9 178 100
2.362819943832236 0.863588798471701 0.7333713942070412 9 178 315
2.3053050172887337 0.8587610484082109 0.7249265233177755 9 178 331
2.221331650382836 0.8059722635026296 0.6942270503361572 9 178 350
1.6418899414946808 1.1089948533079859 0.7503786750722903 9 178 546
3.075926711318629 0.8876608662579235 0.8204487952418871 9 179 88
3.0203461799418405 0.8785448879277467 0.8104558412747075 9 179 108
3.0051438167938094 0.8842395610511691 0.8110269416062859 9 179 113
2.908182094871573 0.8892440446227192 0.8020313939463912 9 179 146
2.4703950450072054 0.8681486131606326 0.7437841836178045 9 179 284
2.444969782289091 0.8591778846594045 0.737275578238763 9 179 291
2.4110960386931595 0.8446609186724947 0.7275689660555464 9 179 300
2.2369437369795526 0.8086400013221868 0.6932481660159957 9 179 346
1.551119405918925 1.158066351756841 0.7563505006811302 9 179 580
1.5190518421747168 1.1650891612994254 0.7555416433080842 9 179 590
2.333763841875326 0.8732401230763842 0.7266670882473549 9 180 324
2.2923439697573764 0.8367415297899354 0.7071409865814409 9 180 333
1.562270111638267 1.1690024684220144 0.7551293750624741 9 181 579
1.4433628580317377 1.1814104900342672 0.7465613994989901 9 181 613
1.4157270206538048 1.1892409793363166 0.7465856743791255 9 181 622
1.4009303155082264 1.1900596183844943 0.7452239067310678 9 181 626
2.9357036787515236 0.8956104163724654 0.7977667465787915 9 182 137
2.8942780601700218 0.8973365989654549 0.7937069516002822 9 182 151
2.6987475197928954 0.8887795130698848 0.7677052346856745 9 182 215
2.4693217274029773 0.8180995787220657 0.7123688361778104 9 182 282
2.357892666629908 0.8563129378806646 0.7151930079354201 9 182 316
2.2182014449926557 0.8329088726040745 0.6895375886938055 9 182 353
2.1950951775047924 0.8644016602924787 0.6997728381492533 9 182 362
1.6451697091011723 1.1223221078761563 0.7420959439872492 9 182 547
1.6389485786465168 1.1438928757766318 0.7502117231726212 9 182 553
1.3710735411622492 1.1886146019072865 0.7376995101524138 9 182 633
2.798518922108623 0.8950817125677428 0.7783652836046898 9 183 183
2.783227423794348 0.8922182687203586 0.7754203567898348 9 183 188
2.5474890108474595 0.8613287942257999 0.7354730864488022 9 183 261
2.525471268957131 0.8715701735834003 0.7371420861095628 9 183 268
2.407537445210887 0.8247054929667663 0.7042352397483687 9 183 300
2.1786655644223543 0.848311239493889 0.6875000077623872 9 183 365
1.5086682907073463 1.183628070962158 0.7480261727106536 9 183 596
1.4881850625010626 1.1906299173293955 0.7485397860392536 9 183 603
1.4327449888620747 1.1929929307441398 0.7431057553443744 9 183 618
3.065058821700366 0.9036159715142129 0.8094158615052257 9 184 92
2.8834932669003566 0.8954947445551547 0.784990085827107 9 184 155
2.6712745382495093 0.8950005057658557 0.7601599534761732 9 184 224
2.2475325569562736 0.8072304578233818 0.6747090176135739 9 184 343
1.5649576396842995 1.179786835794964 0.7495001895436432 9 184 580
3.088759111789758 0.9001727055550053 0.80748248521438 9 185 84
3.0548274707829592 0.9010084879963736 0.8038755531432729 9 185 96
2.512884925326496 0.8276095064190547 0.7102388432499434 9 185 270
2.385260709073358 0.8355924342850716 0.6986822901546181 9 185 307
2.3436551129978684 0.8697165255121433 0.7080064739629209 9 185 321
1.6545995878359152 1.0430661450080112 0.6997067820587941 9 185 529
1.648798598377764 1.0730358850625537 0.7114778804184828 9 185 536
1.6356155758178121 1.1761584118452661 0.7527706999622805 9 185 560
1.3979621692833248 1.195353289981663 0.7330490238744005 9 185 627
3.0341204935324275 0.9105196293538815 0.8021401529661061 9 186 103
2.7033170278393275 0.8892768815868621 0.7545647778952508 9 186 214
2.361098999391021 0.8689742458329677 0.7060459653574889 9 186 316
2.330144693153448 0.8719260803434863 0.703655452709829 9 186 325
1.6440336976243786 1.119592549549864 0.7267161177975674 9 186 546
1.6170267242988694 1.1909134180914076 0.7533175662819387 9 186 568
1.586624347467029 1.189927905171802 0.7493486063242675 9 186 576
1.454951112692473 1.1951397289687176 0.7361149654823926 9 186 612
2.875994066875617 0.8953703320913071 0.7739280875877091 9 187 158
2.8000644268990236 0.9047711660614661 0.7689468984149384 9 187 183
2.6719674766283927 0.8901352223936401 0.7477574614562474 9 187 224
2.434376376027225 0.8334548087105156 0.6960730417439693 9 187 293
2.3873026873927428 0.8442182787721655 0.6950541046306559 9 187 307
2.373177023296728 0.86007197954333 0.7000411632645676 9 187 312
2.245171771437612 0.8121926294191395 0.6649244949586814 9 187 344
1.5333239898677284 1.1943288459842858 0.7414921702876051 9 187 591
1.499871368891049 1.1950591315758614 0.7378672536823795 9 187 600
2.9297619868307123 0.8987218936786618 0.7782924138237713 9 188 140
2.8882432288722124 0.89862128107536 0.7733505976165281 9 188 154
2.4191268461486755 0.8266347691203013 0.6876679599993181 9 188 297
2.392732677844094 0.8360468313004665 0.6885181535464054 9 188 305
2.340187182433329 0.8548107590700191 0.6902218392841178 9 188 321
1.4916147472280008 1.1996579470463662 0.7353531877465693 9 188 603
1.384788942882159 1.1930477071440824 0.7199626046666421 9 188 629
3.1040185904785393 0.9071214116431883 0.7991311835933411 9 189 79
2.574954616997718 0.824641845541811 0.7015294410102704 9 189 252
2.315298478575553 0.8826163745440105 0.6952973426952652 9 189 330
2.2929509941142197 0.8521745005877519 0.6797651179276938 9 189 334
1.6318873558889155 1.1511922837367465 0.7279846751471037 9 189 555
2.807524981051413 0.9009866519704162 0.7579730858034142 9 190 181
2.7107867482156918 0.881514599835685 0.7381819220400836 9 190 212
2.6725677959108607 0.8834515293149914 0.7344577465378901 9 190 224
2.436527529019123 0.8238614088860661 0.6810314570184539 9 190 292
2.3258643467154867 0.8684342156890505 0.6868166365663775 9 190 326
2.2646263289752575 0.8155184210188655 0.6570287284269054 9 190 339
2.2125136677387225 0.8635079723346315 0.6712339082517023 9 190 357
1.6302990913045536 1.192952333304434 0.7420414178169482 9 190 564
1.5469680927802467 1.19570158410102 0.7332946256107867 9 190 587
1.381206630310568 1.1915104815867754 0.7117879604210708 9 190 629
2.9452511449549155 0.9070640151055069 0.7735923992376712 9 191 135
2.5746225243254877 0.8167615358366991 0.6907280039376673 9 191 252
2.555312678235657 0.8272402727258494 0.6928973530754106 9 191 258
2.4729659921285303 0.8307068637483817 0.6845388250569185 9 191 282
2.4149515609904038 0.8214992040875533 0.673673115993244 9 191 298
2.3530418744740658 0.8482517047651417 0.6777046360192934 9 191 317
2.247420331776684 0.8073870899255551 0.647626131949116 9 191 343
2.2152028062119067 0.8125661839825054 0.6459890792724119 9 191 352
1.6410613025429397 1.1455078590371688 0.7196228276176502 9 191 551
1.6390006259543708 1.152640480609281 0.7224237526333395 9 191 553
1.6261182027443595 1.2116423278669342 0.7460908374676982 9 191 569
1.5380577306802783 1.1995078225928 0.7303845763327472 9 191 590
3.0311185633666473 0.8976287132571972 0.7764859544212146 9 192 106
2.545218417319654 0.826725593980145 0.6877530037333259 9 192 261
2.5235085131575485 0.8188996494718062 0.68178918041306 9 192 267
2.197579915340973 0.8858230678329826 0.6714067020224656 9 192 363
2.1864753442826723 0.8744135789995642 0.6651772735037915 9 192 365
1.473461208706368 1.2048867112812651 0.7214680149678465 9 192 608
1.423546987722216 1.192740277301946 0.7102657059407707 9 192 618
1.406813643365615 1.1874553998654627 0.7059896421749119 9 192 621
3.079386388934555 0.9182972615398941 0.787871938064836 9 193 88
2.71757884143182 0.8601160805469783 0.719192450675118 9 193 210
2.6881800620143474 0.8532713050701868 0.7126989082663264 9 193 219
2.659574029400608 0.9160836262647187 0.7363374679565614 9 193 229
1.6351796539897423 1.1738008909711546 0.7240454819033298 9 193 558
3.0709839465884268 0.9218865320009577 0.7851277711040785 9 194 91
3.047765724023484 0.9088013090753417 0.7766501938939043 9 194 100
2.884684760491349 0.9069381580823823 0.7561134679840412 9 194 156
2.5374342055019814 0.8160339580332929 0.6747225096395583 9 194 263
2.4065557393973793 0.8655746372183688 0.6803502238424165 9 194 303
2.328012608358481 0.8332461266639033 0.6568430657929875 9 194 323
2.809971928172213 0.8884502239513137 0.7355826998647361 9 195 181
2.677301968016601 0.8809437570445795 0.716199115941739 9 195 223
1.6438619873664728 1.1230038050884363 0.6960053848588459 9 195 545
1.6249085433236128 1.2002730377613184 0.7273315826953564 9 195 566
1.5933526133855067 1.2024712059345075 0.7244548614013501 9 195 575
2.89208906979198 0.9006742145732733 0.7474546670547587 9 196 154
2.4072726358884564 0.884802563081915 0.6813776339562844 9 196 304
2.345246277190845 0.8136279751732105 0.642692516223596 9 196 317
1.5558256870373515 1.2077398264164718 0.7187143962332749 9 196 586
1.4297479528069497 1.191099079413819 0.6960597986605638 9 196 615
3.075762261330083 0.9214312776053313 0.7756383399584489 9 197 90
2.93021451535522 0.9134411441595143 0.7543020709415362 9 197 141
2.7827775506372023 0.9049805072968131 0.7325277479495209 9 197 190
2.547511865347607 0.8356066324136933 0.6732408483859169 9 197 261
2.5085553446054503 0.8283701381693989 0.6652909166964553 9 197 272
2.4907934579813604 0.8262059154697454 0.6621648327787966 9 197 277
2.4696854720284396 0.8258147129304478 0.6594076926885528 9 197 283
2.45664933440313 0.8318799069508602 0.6604750771198186 9 197 287
2.418495095111557 0.8536001336184187 0.6653422492906977 9 197 299
2.390272895228773 0.8700275143587959 0.6691010897916 9 197 308
2.325278492883284 0.8363512525751591 0.6463487306254355 9 197 324
1.518878419817165 1.2053504560551334 0.7096585210949832 9 197 595
3.0605098218902547 0.9154524526537351 0.7678222105572423 9 198 96
3.052349607282049 0.9171176792826665 0.7642247025068353 9 199 99
2.7487335260560455 0.8546583855906553 0.6990462465079911 9 199 201
2.7354896802532758 0.8372999679269766 0.6897163132408088 9 199 205
2.706020599922485 0.837121911411447 0.6859984066514881 9 199 214
2.461662934288148 0.8181238988541477 0.6474026770273295 9 199 285
2.406584853812838 0.8966054638749703 0.6753901558228208 9 199 305
2.2046080064036095 0.8867770666339521 0.6460924513653525 9 199 361
1.602231614113661 1.199070391927085 0.7101394844286328 9 199 571
3.0342472103750806 0.9090669183556392 0.7550603768163672 9 200 106
2.805664211373021 0.9040380229818756 0.7244794136242151 9 200 183
2.5506287913310017 0.8549422156198183 0.6709957839101378 9 200 261
3.0415957863358796 0.9209475534391351 0.7579232694882073 9 201 103
2.784454781418594 0.9034026653966651 0.7180627931709976 9 201 190
2.5054944286641736 0.8256915459806473 0.6485720994861179 9 201 273
2.4443637031503314 0.8577690791707626 0.6553108490546306 9 201 292
2.4143868703025926 0.883032268577971 0.6628798074206297 9 201 302
1.6421337772029783 1.141713238572341 0.6824543361601803 9 201 548
1.633789202088222 1.1653422384920549 0.691985341214141 9 201 555
1.5095164283976952 1.207508118061532 0.6953761299902217 9 201 597
1.4879617580955267 1.2091230025850508 0.693415106785033 9 201 603
3.038765561112757 0.9063157880087207 0.7476498026335269 9 202 105
2.9622578370439014 0.886967371733044 0.7293921283620225 9 202 132
1.5722914003906932 1.2065987640427054 0.6992771830086556 9 202 580
3.107425185937088 0.9225654240679828 0.7602196669629409 9 203 80
3.015352322404991 0.9127373700091856 0.7442277851015973 9 203 113
1.5347341289569623 1.203504289201717 0.6896530746561341 9 203 589
1.4850500221404102 1.2037069094869075 0.6835089466292876 9 203 602
2.926922840032977 0.8577753421550802 0.704775892784489 9 204 145
2.6856657397948194 0.8570622601711226 0.6740512570955324 9 204 221
2.5242134767959836 0.8551821050781647 0.6528538056026367 9 204 269
1.636362952190649 1.1667384434963124 0.6822432326581684 9 204 554
1.6309748129046056 1.1886378861429803 0.6914941477408392 9 204 560
3.0249442806905478 0.8947427871097997 0.7304645896819982 9 205 111
2.8170777994110083 0.9053837064234687 0.7090119124299513 9 205 180
2.80486419796836 0.8981528480576875 0.7041731770286035 9 205 184
2.7510381789465015 0.8452581688529595 0.6732709511696384 9 205 201
2.7313426590450613 0.8389552604563157 0.6679082578169682 9 205 207
2.505228279633665 0.8419994123378183 0.640686721930428 9 205 274
1.6107929674143757 1.1971236354211565 0.6892722403435161 9 205 567
2.9642339952218073 0.861961620210191 0.7043228297734526 9 206 133
2.702529571876861 0.8505912862672886 0.6658764723765765 9 206 216
2.5234129046131444 0.8709064822536121 0.6524179770510313 9 206 270
2.448514612261489 0.8951389562655978 0.653990530621956 9 206 293
1.4948363175256114 1.200520568872541 0.6725635075824028 9 206 598
3.0880762037109744 0.9044992291633454 0.7361304251517536 9 207 89
3.080932741013212 0.8801834649892604 0.7240445355502909 9 207 93
2.9351271605753326 0.8530929649521815 0.6929985297069694 9 207 143
2.555550632111114 0.8813727206507869 0.6575839914873047 9 207 261
2.9010321841407944 0.8613259118807322 0.6888572768203836 9 208 154
2.725937131434065 0.8387887401657774 0.6560324874169894 9 208 209
2.7128158906584687 0.8411224299574482 0.6554295909307405 9 208 213
1.4965896785535135 1.1958765215383373 0.6634541406839799 9 208 596
3.0747953298037825 0.8727242136376359 0.7128989241224027 9 209 96
2.54671565702367 0.887846995096051 0.6520196448336358 9 209 264
1.603125821801139 1.2100631662492447 0.6801151394113577 9 209 571
2.9604453335633054 0.8618507599040601 0.689597785686966 9 210 135
2.920696871940958 0.8605891018092233 0.6838796060519585 9 210 148
2.82946258251134 0.8786430680775252 0.6805119969148634 9 210 177
1.629189293051523 1.1875121412286278 0.6694397767187905 9 210 559
3.086482062758465 0.8961559114711419 0.7184144280207513 9 211 91
2.740249508677462 0.8365375857241091 0.6456561203553567 9 211 205
2.5753046167847184 0.8376552033297238 0.6248037649665843 9 211 254
2.5171159042770066 0.8911283290894112 0.642278381273257 9 211 273
1.572066984650343 1.2154022166539953 0.6715083043877614 9 211 580
3.0512313606500516 0.866583300977489 0.6964970804644147 9 212 105
1.6223799892450415 1.2091175806699916 0.6715466290382208 9 212 565
3.0870814221846623 0.9157730163173154 0.7208737021749032 9 213 90
2.48946512879619 0.9078531588481082 0.6390748531745424 9 213 282
1.6367893095740058 1.1663482914976113 0.6496953719318499 9 213 552
1.61468739291112 1.2098432215474308 0.6673359774957949 9 213 567
2.9065200757567196 0.8714922855631031 0.672797680592365 9 214 153
2.7251655211713612 0.8462508166679996 0.6370500691272168 9 214 210
2.5198870248860565 0.8825135260844907 0.6273199840722 9 214 272
3.079430831696536 0.9179557578021447 0.7140848540782736 9 215 93
2.8388029428159975 0.8594281068646534 0.6545392215720552 9 215 175
2.948479512397046 0.8624271442676386 0.6668035057356657 9 216 140
1.6302999290262363 1.2042728015421384 0.6560437000167223 9 216 561
1.59902289885463 1.2120550149033011 0.6556311138382966 9 216 571
2.9034006873617066 0.8927990242808841 0.6717991618096186 9 217 154
2.566550312042736 0.8381219666655109 0.6008406014053004 9 217 257
3.1059966171856015 0.9233140727015341 0.7099311853320042 9 218 84
3.0968845210271585 0.926503646267063 0.7102559020116787 9 218 87
3.053385184546366 0.9133444241537991 0.6981134363037567 9 218 103
2.733241441676242 0.8417261345735949 0.6209185333817331 9 218 208
3.083283113855766 0.9268020698089208 0.7051698942812886 9 219 92
2.963858738873007 0.8496174530628282 0.6518045236937975 9 219 136
2.756983492281531 0.8669939904772166 0.6325562997879224 9 219 201
2.909818259333861 0.9088826381240454 0.6697370749900493 9 220 152
3.064668010931073 0.9262079063234108 0.6955152005624159 9 221 99
2.9299818065599164 0.8585396820557807 0.644293741524885 9 221 147
3.0854982950491463 0.9096935311124461 0.6867802758242249 9 222 93
2.155716263920864 1.0590372821640464 0.6306182896426841 9 223 391
2.980830173785668 0.8617812319531866 0.6418262949377032 9 224 131
2.9361955011429144 0.8765560257878253 0.6430537177173308 9 224 145
2.85270600182474 0.8597229925832506 0.6233364937315288 9 224 172
2.9664608581080447 0.8578113924663524 0.6342370752932419 9 225 136
3.0596520626068973 0.9101351500309527 0.6659768833992514 9 227 103
2.9055122840155176 0.9329386247934428 0.656147493362182 9 227 154
2.144962154923426 1.0947360810357623 0.6323570070903145 9 227 398
2.9718406627096856 0.8531303230496423 0.6215894347914825 9 228 135
3.033174152905839 0.9189284247294651 0.6596871137029037 9 229 112
2.9182177832083425 0.9374892287235519 0.6530927812946846 9 229 150
2.9083084208556436 0.9107414965766827 0.6381900571216099 9 229 154
2.9409218878019794 0.9417553467526398 0.6442324507135173 9 233 143
2.9231414850589887 0.9398131453658891 0.6407240870672899 9 233 149
2.1354773787822916 1.1485288656708652 0.6368814241082663 9 233 407
