1.8523938457139628 0.7124382887312559 1.147090276747981 9 9 567
1.841915135564687 0.7121313668733273 1.1468316771846916 9 9 570
1.7687242224377449 0.743262080230743 1.1488288892971603 9 9 596
3.5498639484786145 0.8526760382803313 1.196626560688262 9 10 24
3.486373703891893 0.8487388806261131 1.1948093206804384 9 10 47
3.4689655965318424 0.8253327749189387 1.1917254056323197 9 10 56
3.39773005643034 0.7543599420047042 1.1819786656593043 9 10 88
3.383460350302607 0.7092629751265509 1.1764500105886575 9 10 97
3.36971517232037 0.7252918325384607 1.1780116142984083 9 10 100
3.2087564928433436 0.7445849682620045 1.1767948940256414 9 10 151
3.1618638138824378 0.7136795966078164 1.1722103151174617 9 10 168
2.72483769068832 0.7531801618596246 1.1674147459959274 9 10 306
2.6920482042595895 0.7856258873742432 1.1704692720201892 9 10 317
2.6736347852837103 0.7901928987836395 1.1706033831742557 9 10 323
2.6169945301236215 0.7868274475342238 1.1689992213964862 9 10 341
1.8205619481989888 0.7120650101067405 1.1432648673974137 9 10 576
1.708826715178341 0.7535085583137273 1.1456687831030288 9 10 615
2.7896018595663805 0.851810899192107 1.177434804928494 9 11 286
2.6008429046529815 0.7830658789674312 1.1653018440472696 9 11 346
2.4556620171736983 0.7518757621196304 1.158513891888414 9 11 390
2.0887469700194408 0.7444217189538014 1.149732001866043 9 11 501
1.90496933070451 0.7246346385240661 1.1434500282500901 9 11 553
3.4694499552187725 0.8024070834557702 1.1834955101608875 9 12 59
3.3270447242119436 0.7164047845131345 1.1701913737190976 9 12 115
2.7630161720891864 0.7534045528522593 1.1623702350269094 9 12 294
2.414110148393382 0.7864433540254117 1.158738308385153 9 12 405
2.0229544357174065 0.7400769523097217 1.1447556827108982 9 12 520
1.8794426733929273 0.7152254211646636 1.138693957940729 9 12 559
1.809743227342199 0.6999705660345952 1.1353714680034948 9 12 577
1.7871592222206343 0.7101948826191391 1.1360971918676182 9 12 585
1.72378250691518 0.7523328946167909 1.1397315015821357 9 12 610
3.5520196933213453 0.8523939899064243 1.1885095137718955 9 13 24
3.521731974262908 0.8503287384117282 1.1876015528546553 9 13 35
3.4727118487120747 0.8282230935823209 1.1838741012901677 9 13 55
3.0907494574982284 0.7137956001513863 1.1617878271878823 9 13 191
2.455722368748447 0.7709837985118535 1.1548438744432137 9 13 391
2.158021010534107 0.7146229029749578 1.14157983638999 9 13 477
3.3981038830298247 0.7302619115760276 1.1675405567723902 9 14 91
3.3485689355519046 0.7092836278304273 1.1639003055238066 9 14 109
3.2845711405407014 0.7300142477576181 1.1650259369894118 9 14 128
3.2577717692371078 0.7116506991634899 1.1622018236670568 9 14 138
3.226524296387372 0.7267749523794285 1.163360976497121 9 14 147
3.167718222298623 0.7075449578534911 1.1597308799206498 9 14 167
2.715893122490481 0.7588031308441989 1.156089560109724 9 14 309
2.518518587638145 0.7839478712807455 1.1548343793781046 9 14 372
2.4326797094500767 0.8009284874309037 1.1550251107434528 9 14 400
2.0158743686950227 0.7415790801661568 1.1386722145446084 9 14 522
1.8613882172679657 0.7015393801220609 1.130412613019196 9 14 562
3.5165783167750724 0.8449399594542193 1.181369002479298 9 15 38
3.4436398767518637 0.8064533189470819 1.1750166927083407 9 15 68
3.4309371890876994 0.8095209267474526 1.1751157600972322 9 15 72
3.400945687414672 0.77323525313271 1.169979560658305 9 15 86
3.297734222653501 0.7412402551156649 1.163762298756495 9 15 123
3.103806193912236 0.7372637681006711 1.159006457307162 9 15 186
2.7477042951100996 0.7601227455450335 1.1539944484959075 9 15 299
1.8305658850696116 0.7107431650605625 1.1277309028557445 9 15 572
1.779653321822896 0.7262278178111883 1.1285214717770833 9 15 589
1.7619037495813776 0.7318027756666672 1.1288188696247214 9 15 595
1.7270155232571898 0.7311497353130711 1.1279709707370338 9 15 605
3.476697722822628 0.8385775479940694 1.1769505399720779 9 16 53
3.39821357504603 0.691585925003618 1.1568579957490555 9 16 95
3.366483449416004 0.7045893496491815 1.157780578510763 9 16 104
3.218246080433285 0.7261208059883135 1.1571927991372921 9 16 150
3.1333472139091674 0.7301990388016018 1.1558254165683781 9 16 177
3.0990432162761343 0.7295057198430674 1.1549805309355528 9 16 188
2.5225996059262075 0.7909254899468763 1.1499087652987172 9 16 371
2.789663510680741 0.805960841795371 1.1548032238501125 9 17 286
2.7347948456568103 0.7502106108788285 1.146536827021114 9 17 303
2.719329699655985 0.759880706203 1.1474156437851972 9 17 308
2.7071535258742783 0.7693100571878773 1.1483370977189575 9 17 312
2.612643236444474 0.776227968215828 1.1471118969637786 9 17 342
1.8935840964032848 0.6847813513496823 1.119577065940522 9 17 550
3.2882561339372653 0.7229488546109832 1.1524245196194427 9 18 128
3.2452952341158605 0.705831252668641 1.1492753613855708 9 18 143
3.161516785668195 0.7343586830001421 1.1510543735188088 9 18 168
3.1549994842383406 0.7177728158463497 1.148786959001416 9 18 171
2.7765625867227386 0.7636026968690497 1.1462003748034804 9 18 290
2.5067022618629933 0.7918872396608765 1.1437934561986158 9 18 376
2.45586723213691 0.7924089207716727 1.1427251466315236 9 18 392
3.5535468664575567 0.8446342969488343 1.1711642231939294 9 19 26
3.4959169589399037 0.8616399680178861 1.1720725726232915 9 19 44
3.4723089914774428 0.8068910235216886 1.1644550167877894 9 19 59
3.429912044242982 0.8110600228962315 1.1640433557282917 9 19 73
3.395482979091126 0.7890713017464412 1.160424114416882 9 19 87
3.331439094513082 0.7138389737414392 1.1492474056091435 9 19 115
3.0914809272717174 0.7239441175634906 1.1451710005052642 9 19 191
2.684307286604541 0.8038315172574049 1.1463763207831796 9 19 320
2.4669807164171695 0.7483439197487227 1.134316129358955 9 19 386
2.452146185688677 0.8069722810521185 1.1415732718852107 9 19 394
1.752560557453687 0.7388327813894031 1.1170533614420894 9 19 598
2.4556224343666386 0.7581671723450931 1.1323222629375023 9 20 390
2.4149073495857483 0.7813781598751106 1.1344444388792816 9 20 404
2.1337731178414083 0.7401995263416203 1.1227104637054124 9 20 486
3.4773765461561235 0.8455657434882855 1.1640456243938293 9 21 53
3.353985755206307 0.7599065668774494 1.1498976435840194 9 21 104
3.3355081143796834 0.7261489150223712 1.1450053347413127 9 21 113
3.2865635731222524 0.723347817037602 1.1435248691541868 9 21 129
3.1614303245595683 0.723995675158636 1.1407747353257447 9 21 169
3.1466148761668262 0.6995455296963442 1.1371988485891986 9 21 175
2.622249158320634 0.7772936486197175 1.1356178771763838 9 21 339
3.5434335722396098 0.8538324334672773 1.1638868740700605 9 22 29
3.433684788053536 0.8140254508305091 1.156051019785897 9 22 72
3.1896769394593676 0.7425844441216443 1.1409166702924733 9 22 159
3.131999199025537 0.7138496838706365 1.1357510417748566 9 22 179
2.8182077642548036 0.6964200085013976 1.1262676500240754 9 22 277
2.7897156765980142 0.7654819683781766 1.1348766337099332 9 22 286
2.76131483177615 0.7686238766471167 1.134650957273874 9 22 295
2.5245192408121713 0.7859567071778761 1.1315812159936125 9 22 370
3.5259881783342664 0.8639438371134627 1.162102925634732 9 23 34
3.4195032532021243 0.814374699502967 1.152944683436703 9 23 77
3.3981221379167916 0.8170020797770576 1.1528115457136088 9 23 84
3.374889790234699 0.7220343551984354 1.139403318719328 9 23 101
3.258120181793979 0.7295193805599625 1.1377455324138745 9 23 138
3.2244369551618055 0.7564175273664011 1.1406216423138558 9 23 147
3.027248573538555 0.7453562533163243 1.1346085476006533 9 23 211
2.512878733377597 0.7734462774446378 1.1266441312943354 9 23 373
2.454507804680494 0.7543484697274454 1.1227186841197836 9 23 390
2.4520330979729543 0.7757753472173379 1.1255672679521305 9 23 392
2.4328935269954326 0.7931107428820103 1.1274796647744043 9 23 399
2.300439442665823 0.6774560522456943 1.1087666281035338 9 23 431
2.166988787408922 0.669165448599685 1.1045880551442195 9 23 469
2.1244058306851055 0.7455801480541298 1.113974311320352 9 23 489
3.462105045973102 0.8116323768445102 1.1507139475487573 9 24 63
3.4416200789416393 0.8025171144866485 1.1489928356272066 9 24 71
3.337952008718407 0.7347417622486985 1.1373146173331152 9 24 112
2.9878178495445864 0.7317113369911492 1.1288456530003343 9 24 224
2.780333342362839 0.7585747631189121 1.12775698555707 9 24 289
2.7517110560635567 0.7596083322323186 1.1272403751654998 9 24 298
2.423728722842902 0.7804313984701401 1.1225518548185223 9 24 401
1.8869093936281651 0.7019032768664808 1.0994362676230534 9 24 553
1.7544305255257218 0.7423826304259835 1.1019398964661495 9 24 597
3.4866697671257296 0.8664252577122444 1.1560412296473324 9 25 48
3.3899150692304056 0.7992633663399655 1.144491783681985 9 25 89
3.338607918003849 0.7107440229218855 1.1310312403780984 9 25 114
3.1287319918007657 0.7218638078275403 1.1277221721328994 9 25 180
2.818687678552511 0.676677872852725 1.1142901395951554 9 25 277
2.052137460635125 0.7264236816630665 1.1034704001994475 9 25 508
1.84397664044242 0.7225691583082614 1.098124543160333 9 25 568
3.5234782163168283 0.8683055524823056 1.1544042463198447 9 26 35
3.4674264012063762 0.850152522919924 1.1505571336235882 9 26 57
3.4581277353837145 0.8010225234186847 1.1434526875941953 9 26 66
3.394935458774681 0.7229833795259122 1.131043152249481 9 26 95
3.384191739022681 0.7280090734723861 1.1314982596442373 9 26 98
2.981452763021964 0.7384120850973945 1.1236025916709815 9 26 226
2.723705729105774 0.7710559503406706 1.122192964535279 9 26 307
2.7113808127304275 0.7783168349154577 1.1229247399863653 9 26 311
2.610800357515968 0.7899183477142526 1.1222152330645696 9 26 343
2.1573956456020227 0.7372623249598742 1.1043013255093133 9 26 478
1.97928501242674 0.7333428212058866 1.099614868159977 9 26 530
3.287090689003912 0.7207422096122367 1.1252165049049663 9 27 130
3.2484000532629445 0.7256923117524174 1.1250151741015304 9 27 142
3.1626792070704473 0.7129053210840433 1.1212018635989223 9 27 170
2.48701024668165 0.736947133047327 1.1088399666063489 9 27 379
2.4552961395545125 0.7615070052704263 1.1115812336317163 9 27 390
2.218043084937406 0.7386323265251562 1.1028012312991555 9 27 460
1.962845884359525 0.7361326502589978 1.0964906601155568 9 27 535
1.8816663246144099 0.731485057294964 1.0939371359179093 9 27 558
3.5154060654607227 0.8632165611952136 1.1479757651157145 9 28 39
3.488913798673453 0.8577487416676197 1.1465708934077536 9 28 49
3.4649201622354076 0.8192955019223165 1.1404977511748937 9 28 62
3.3601043360152443 0.7296183660603139 1.1251886081591105 9 28 106
3.345345476773434 0.7497453011819246 1.1277266951303364 9 28 109
3.334790688776796 0.7314712601784574 1.1248604502421262 9 28 114
3.319795385764305 0.7293944195070885 1.1242111503091137 9 28 119
2.4232487579212503 0.7812634330576833 1.110617364534718 9 28 401
2.0194895302420246 0.7505032422416689 1.0967400069918696 9 28 520
3.5566448023385098 0.8541960970288807 1.1448707535549272 9 29 26
3.396601504475777 0.8141023002726802 1.1352914384987756 9 29 86
3.2253280093160392 0.750512233635126 1.1220439890848226 9 29 148
3.213295767783624 0.7016991394851184 1.1146897643425988 9 29 155
3.1266929939249493 0.7640760100188071 1.1216842490838226 9 29 179
2.7489729882624956 0.7589473024427043 1.1120398225869872 9 29 299
2.277159101003685 0.7723365515312568 1.102860296760153 9 29 445
2.144506472829821 0.7714732247468166 1.0996090893208 9 29 485
2.1037016124256662 0.7416831917962197 1.0943323215507779 9 29 494
3.1825974452594354 0.7149987895995038 1.1128502942180185 9 30 164
3.1224099573633324 0.7341952594344381 1.1142354948234918 9 30 182
2.3068519397679284 0.7611408551825467 1.0988679534434995 9 30 435
2.0477411488786865 0.7558078645173003 1.0919514118598421 9 30 512
2.038711444680356 0.7585817654496692 1.0921436986746738 9 30 515
1.8415925418853967 0.7381462528642238 1.0844840565293004 9 30 570
3.439928043091747 0.8117109888945953 1.1302353839477308 9 31 72
3.3664039602962865 0.7241946219268589 1.1155371046582845 9 31 105
3.3449744970424766 0.7458207998969211 1.1182270064065718 9 31 110
3.2975062739307024 0.7503509356790439 1.11776782706156 9 31 125
3.288070840234756 0.7510415852497148 1.1176455091577693 9 31 128
3.1624689100691157 0.7053410828127413 1.1078951370197574 9 31 171
3.0109316395263703 0.7111549278304794 1.1051496845488544 9 31 218
2.5275672453643994 0.7898180315917709 1.1052874865148747 9 31 369
2.4960647680682126 0.7741776288408708 1.1022237774915493 9 31 378
2.4679995280292735 0.7804546439370128 1.102484737924393 9 31 387
2.4057340237084 0.7776227316078652 1.1005841904484153 9 31 406
2.393132680336396 0.7796007011304493 1.1005770140297053 9 31 410
2.1630070423292547 0.7594972438198604 1.0921269329260588 9 31 478
2.082125790655695 0.7675288370003455 1.0913907998418213 9 31 503
1.9340530616043934 0.7456419025844407 1.0846291965382147 9 31 544
3.520120505487882 0.8653041275718807 1.1372935675539138 9 32 38
3.477478588648839 0.856822346470838 1.135005921838799 9 32 54
3.3942649204538755 0.8080620866896469 1.1257259906455028 9 32 88
3.2813280935379785 0.7424905116525891 1.1132218708284551 9 32 131
3.106280026372077 0.7415907598836193 1.1089023103868287 9 32 187
2.7908958471094643 0.7594019211683629 1.1040251989377214 9 32 286
2.6299608296442485 0.791223807216084 1.104935478927826 9 32 337
2.6134919138349146 0.7861002563019643 1.103775685898468 9 32 342
2.2160008661188666 0.7698378454777584 1.0918410076501839 9 32 463
2.2085375272315417 0.7672196260844233 1.0912711076724753 9 32 465
1.893923966409607 0.749110193056387 1.0810416961275837 9 32 556
1.8801615889430399 0.7490626830168146 1.0807055629697975 9 32 560
3.563945281824843 0.8571741068376715 1.134334198306592 9 33 24
3.2446945030579064 0.7414139508720616 1.1091765081744849 9 33 143
3.1394269210585946 0.7143371758217099 1.1025571014795739 9 33 178
2.9941524354858053 0.7249708959371297 1.1006738101416056 9 33 223
2.7688944917143505 0.7709712824050927 1.1022122171124829 9 33 293
2.7563065254148045 0.7761087728186871 1.102685981349702 9 33 297
2.7434163393331334 0.7717822912299266 1.1017227032029329 9 33 301
2.700090873986946 0.7949795927163013 1.1041864993431538 9 33 315
2.5426818286305206 0.7843674384923742 1.098801961310404 9 33 364
2.4178173555089866 0.7903452924000418 1.0967055695716794 9 33 403
2.3870167527102053 0.7831137238902433 1.094873156036791 9 33 412
2.301726097337354 0.7819787922025438 1.092652835891148 9 33 438
2.265424228463985 0.7698798920916734 1.0899529317732282 9 33 448
2.2518526904315004 0.7687653149586051 1.0894585289688736 9 33 452
2.1806539087146914 0.7644909152826158 1.0871024255204782 9 33 473
2.084703221890922 0.7588661347544288 1.0839477192474751 9 33 501
2.042468991687965 0.7545795830653097 1.0822855686403203 9 33 513
2.001971425696494 0.7470038807669832 1.0801682234168029 9 33 524
1.961342173238771 0.7710578786734865 1.0828262147703964 9 33 539
3.5062079885314796 0.8754451346352647 1.1329335433493577 9 34 42
3.434080645166707 0.8080556201462104 1.1209064052162423 9 34 75
3.38694151187757 0.7556878599419576 1.1117752929078235 9 34 96
3.3465751204921217 0.7460043931614226 1.109322921436353 9 34 110
3.316132965053736 0.7440200369042951 1.1082852670909022 9 34 120
3.209525901743335 0.7781527398748076 1.1109221212807983 9 34 152
3.198643441785133 0.7231310840811316 1.1022610287322738 9 34 159
3.1613361384157823 0.7005856422426833 1.0979192587907467 9 34 172
3.0998949163595886 0.7472100503610568 1.103552971629132 9 34 189
2.455622227404597 0.802794574027726 1.0964868727253891 9 34 392
2.3667177865195157 0.7808663646506706 1.0909939455543904 9 34 418
2.1502822075319687 0.7840708368187885 1.0862590893739292 9 34 484
1.748823115743936 0.738681240468896 1.0696410951569693 9 34 596
3.5755600072145106 0.8391428031300125 1.1262390835856664 9 35 23
3.4822213839698026 0.8649171879181448 1.1279500275538161 9 35 52
3.4730337809819685 0.8256005583787571 1.1216644648756282 9 35 60
3.4650760470827495 0.8146071979328466 1.119776269583344 9 35 64
3.406850330053004 0.8115027806858479 1.117885528449467 9 35 84
3.3786183204909412 0.7546379161884624 1.1084321246352742 9 35 99
2.7213873083323534 0.7753845197545468 1.0956928345742472 9 35 308
2.604185548090084 0.7892251137585093 1.0949848444344106 9 35 345
2.489721637402332 0.7965513089154577 1.0933387079109202 9 35 381
2.1189910074475184 0.7721228564113396 1.0805811848213227 9 35 492
3.477005773553156 0.8572429345410573 1.1238255214990256 9 36 55
3.4558708870293486 0.7999048479905662 1.114378974297328 9 36 69
3.2812824736425967 0.738026542503952 1.1004861960808978 9 36 132
3.2335579441377114 0.7562411636423743 1.1021606559785349 9 36 146
3.126293394349079 0.7241349973001117 1.0945458896890026 9 36 182
2.53449067131358 0.7958443638962249 1.0912964188974934 9 36 367
2.3738364031381116 0.7991916866783773 1.08790338313146 9 36 417
2.34104248496192 0.7847679267874694 1.0848575411088177 9 36 426
2.255915684228933 0.7857414073962694 1.0829350086050404 9 36 452
2.2420919687980025 0.783598693022372 1.0822644127816254 9 36 456
1.763109711853299 0.7418981034369958 1.064097965328886 9 36 592
3.223340950118036 0.7627003743974254 1.0999212579273214 9 37 149
2.4616211913877675 0.802695986850366 1.0875668388344457 9 37 390
2.189217058031899 0.7848104481254077 1.078084117517045 9 37 472
2.073239660404922 0.7775393742943186 1.0741008930660234 9 37 506
1.7425476878941657 0.7502613851124074 1.061713442899773 9 37 599
3.4407239488321864 0.8133852323156301 1.1103210396963359 9 38 73
3.4109746457157413 0.804014298623873 1.1081001802844843 9 38 84
3.3399868908472636 0.7441191457495149 1.0968361174429693 9 38 113
2.995393578673556 0.7619933754413009 1.0912010566347294 9 38 222
2.746767304806791 0.7633945019848987 1.0853085892263756 9 38 300
2.312936463258244 0.7920002039592031 1.0791840361788476 9 38 435
2.119812462588173 0.7777900747070168 1.0721758632699663 9 38 492
1.8473456031422062 0.7735871532020551 1.0648064694239292 9 38 572
1.8017213295106753 0.7517301510609982 1.0602109657011463 9 38 582
3.564559176515681 0.8519322299908432 1.116666190986766 9 39 26
3.523941389597698 0.8601505039170949 1.1169814137196081 9 39 39
3.2840046843900623 0.732946800393854 1.090637839835692 9 39 132
3.130635173406864 0.7242413878086094 1.0854508366595699 9 39 181
2.691722368853148 0.807771284298973 1.0880103552279854 9 39 318
2.2853183082492956 0.7997538470328174 1.076681051100716 9 39 444
2.2440780922761743 0.7933312944026767 1.0746312329373349 9 39 456
2.1644227261848985 0.7823773138936518 1.0709049071872485 9 39 479
1.8726268665299908 0.756529619200148 1.0595461532528732 9 39 562
1.783180294058433 0.744194292522993 1.05535619006894 9 39 586
3.529998155457925 0.8757953283777928 1.116844801509464 9 40 35
3.4694363676398075 0.8613606220049888 1.1130019285125237 9 40 58
3.441150878909773 0.8068280251044841 1.1034619357706592 9 40 74
3.361556587954622 0.7487137069672767 1.0920676653477426 9 40 106
3.2417297354973202 0.7700632582234621 1.092552795451247 9 40 143
3.20809875165364 0.7368859923976643 1.086341022734174 9 40 156
3.1970487771161187 0.7450322163150642 1.0873869014478483 9 40 159
3.1558097329838573 0.7648221022864248 1.0895703137808148 9 40 171
2.518716577410906 0.7999254089138854 1.0794426020255203 9 40 372
2.4948628747403205 0.8111053383417466 1.0806622652879085 9 40 380
2.4140025285754296 0.8086384616945128 1.0782550070059655 9 40 405
2.1555308566127644 0.7866779445103738 1.0682790931710902 9 40 482
2.1403897152287934 0.7814970958791192 1.0670635652857205 9 40 486
3.4863742365374937 0.8720112459019769 1.1123360008488627 9 41 51
3.4504621434586165 0.8076078919561798 1.1009010907075965 9 41 71
3.3990511956898435 0.7998499997301836 1.0983492719081371 9 41 89
3.317274898044817 0.7660355685793989 1.090776097726001 9 41 119
3.301881293519356 0.7535464507205101 1.0883483877072475 9 41 125
3.2641559216563154 0.7552604270829908 1.087687924024927 9 41 137
3.2347444893515096 0.7616028404969339 1.0879922400817166 9 41 146
3.1236493902867517 0.7330764933634577 1.0805531581703622 9 41 183
3.0407805393748557 0.7318106861163545 1.0782791052111231 9 41 209
2.624636274411303 0.8020716266566983 1.0793973986283418 9 41 339
2.4046148744129527 0.8108450345845888 1.0753453444828904 9 41 408
2.2592859993211674 0.7911088076053083 1.068490851277047 9 41 451
2.232833644143012 0.7909503286911903 1.0678051435699643 9 41 459
1.9712124873250487 0.7723948039614665 1.0582433068825332 9 41 535
1.9521660010322486 0.7601730676883767 1.0557682420886867 9 41 539
1.8880864732057103 0.7481056117946967 1.0521952118343232 9 41 556
3.5679342739782958 0.8559377366416892 1.1089069898674624 9 42 25
3.395965305868081 0.7921274327780001 1.0940547346653824 9 42 91
2.7373114896787967 0.7597552043273508 1.0722016190323582 9 42 303
2.718702737664305 0.7757689083216692 1.0743811993574548 9 42 309
2.45183711936384 0.8057682456140607 1.0726508017041785 9 42 393
2.432946366802364 0.808197595982836 1.0725788325283685 9 42 399
2.3255614698320004 0.8066389084134444 1.069630471624264 9 42 432
2.222613492896012 0.8016159121302877 1.0662208974896632 9 42 463
3.557005572763205 0.8633837944871234 1.1070365104219984 9 43 28
3.3504502693898055 0.7613826752396493 1.0848219094151197 9 43 109
3.151293054357296 0.7435431866829985 1.0768325654530846 9 43 174
2.6164312550722997 0.7847851096287373 1.070247658961665 9 43 341
2.5470427935338833 0.7971841634465253 1.0705691795542787 9 43 363
2.5148307208882796 0.7974505949451469 1.0698027241958576 9 43 373
2.3933077467491595 0.8052999981091518 1.068052895110121 9 43 411
2.3606304677290577 0.8045548390101409 1.0671059851189448 9 43 421
2.292993147465804 0.7959113676159195 1.063961480443583 9 43 441
1.9470555491720334 0.7511699540797443 1.047789607163874 9 43 539
3.366150935696038 0.7732332941974724 1.0841973149479445 9 44 103
3.265289240463958 0.7701672235061019 1.081130211844751 9 44 136
3.22833828690739 0.7394355208205898 1.0750205885534818 9 44 150
3.155790633300273 0.7917658207558431 1.0819981458090326 9 44 170
2.3291916997613606 0.7843529704673804 1.0598452141059518 9 44 429
1.8573422815688743 0.7457487958742832 1.0414113367554987 9 44 564
1.8399029460164171 0.7595639516610404 1.0432967324060185 9 44 571
3.481025884007852 0.8780363525511437 1.1019296131376808 9 45 53
3.4727956971911165 0.8608897798739505 1.0988058211574 9 45 58
3.4599526620967938 0.8221555384812507 1.0918952119803937 9 45 67
3.302146001612146 0.7731510557918155 1.0795558087234556 9 45 124
2.786211734293588 0.7660215017452052 1.0652359047386386 9 45 288
2.7309879077068095 0.7575349204390749 1.0623902644473688 9 45 305
2.5082401951508904 0.7978528954865955 1.0635846020678152 9 45 375
2.4406936543742197 0.8007090333688411 1.0623540015775714 9 45 396
2.4246906741042578 0.801880410521081 1.062146544128968 9 45 401
2.36216440723449 0.7991487754056774 1.060093641684103 9 45 420
2.1116612706758904 0.7725903426864487 1.049214700834804 9 45 493
1.9002334928763518 0.7421275836797241 1.0386648351751857 9 45 551
1.616631047578957 0.7263444433413906 1.0287766229014723 9 45 629
3.565954096705704 0.8607094724262048 1.0982983744526251 9 46 26
3.522766534047919 0.8680436935308005 1.0984545048333123 9 46 40
3.2865911762413123 0.7883104096421869 1.0787460774392996 9 46 128
2.8759282371184347 0.7766406089954341 1.066262504817338 9 46 260
2.8443265776016533 0.7580891317147478 1.0622728954465401 9 46 270
2.8120710808665317 0.7573204308888051 1.0613177510202207 9 46 280
2.7220362103185405 0.7722566327088027 1.0615825466926663 9 46 308
2.713396185022628 0.7916671349397504 1.0646924652659449 9 46 311
2.4906234969773857 0.8090168065414705 1.061983517673668 9 46 381
1.7170569821316 0.7414952239172732 1.0306546219151176 9 46 603
3.435064489454433 0.8112491801903075 1.0835290721235582 9 47 77
3.4077939572107083 0.8122028601546529 1.082995020237524 9 47 86
3.1182377101170617 0.7823197935636717 1.070395964017793 9 47 183
3.036721877083834 0.7841169797182452 1.0686171600368313 9 47 209
2.9996930480435204 0.7774458140847744 1.0665124864621278 9 47 221
2.979380506370754 0.793526238214197 1.068776389787357 9 47 227
2.914304519055536 0.7763991122939398 1.0641419014676152 9 47 248
2.8859469342965736 0.7690932337969074 1.0621496390928555 9 47 257
2.7766255477318458 0.7583319928364771 1.0574831228793535 9 47 291
2.634315144013768 0.8031480873506696 1.061595320211054 9 47 336
2.5495204522998396 0.7937187902727287 1.0577883152381575 9 47 362
2.3922921794705267 0.8041850438646507 1.055569533331007 9 47 411
2.3605020407084103 0.7940031844233926 1.0529912173195946 9 47 420
1.9918353362156067 0.7480202791625781 1.0355757344594463 9 47 525
3.4964019484659863 0.8728035795244837 1.092919874026181 9 48 49
3.472911967854382 0.8245272396268557 1.0838775510808496 9 48 63
3.3908165698652892 0.8107465381491514 1.0793545968881428 9 48 92
3.3572377665854414 0.8017470464663936 1.0769168754765213 9 48 104
3.1013559293092383 0.7933959431238369 1.0688667332168378 9 48 188
2.1168529790653023 0.7623430426305002 1.0380822709945465 9 48 490
2.0740202002147834 0.7571456679124842 1.0360706996592226 9 48 502
2.028287334930779 0.762576321526659 1.0358419034623765 9 48 516
1.9763313188339515 0.7372152455271523 1.030071319599045 9 48 528
1.9545000530210603 0.7586032366753408 1.0332470239122102 9 48 537
1.9167274347219663 0.7363702224065327 1.0283884487075023 9 48 545
1.7264880046695552 0.7357132617025859 1.023373735799153 9 48 599
1.6884410261697091 0.7249577039432904 1.0205140205687364 9 48 608
3.5337498429886387 0.8818923069880091 1.0926431880438896 9 49 35
3.4535610886166417 0.8221947418080453 1.080039514314076 9 49 70
3.230847003118487 0.7968669833892192 1.0698100312935683 9 49 146
3.1904831195058665 0.7987807201501427 1.0691032009929895 9 49 159
3.178594647631912 0.7965287856713477 1.0683984284669221 9 49 163
3.1635315971503832 0.79450909814582 1.0676524798511258 9 49 168
3.003875632659282 0.7728915193520278 1.0597089023271504 9 49 220
2.7014731376853987 0.8033526037347911 1.0572571167496319 9 49 315
2.5168063555830784 0.7929325453830993 1.0506413354306243 9 49 372
2.1522125604215185 0.7675825534739356 1.0367369973934766 9 49 480
3.4208202229378974 0.8239704202041382 1.0765679291782368 9 50 81
3.3189331365907915 0.7898315739497854 1.0678440020699693 9 50 118
3.288376096445391 0.8139065985367135 1.0713345047055607 9 50 126
3.2387316123902994 0.8185802911854085 1.070875993868256 9 50 142
3.1378990655955006 0.8020428365083019 1.0653120488346974 9 50 176
3.112691647709471 0.7851694061544556 1.061653870450888 9 50 185
3.0374012149970984 0.7865208505122814 1.0599375289180473 9 50 209
2.9210086984727144 0.7825613693469211 1.0562077076291605 9 50 246
2.911246789073725 0.7874356624748977 1.056821480232883 9 50 249
2.838412353262448 0.7698887853968457 1.0518055798580046 9 50 272
2.220953280920212 0.7506101923687833 1.0323262242316127 9 50 458
2.054537254441721 0.7534320827469481 1.0285031509843643 9 50 507
1.840202680808699 0.7400030956252075 1.0205424154746883 9 50 567
3.5761050409081743 0.8587454428029464 1.083924657359256 9 51 24
3.2017586945463394 0.8082149218129799 1.0650769362640928 9 51 155
2.546178694181673 0.794895341786078 1.0455689407325952 9 51 363
2.1941274846421606 0.7635145405376731 1.0307421753626707 9 51 467
2.174952024711797 0.7669964132178493 1.0308668038158024 9 51 473
2.1364692665516642 0.76357866581511 1.029248331603237 9 51 484
1.7524099201959698 0.7418145039396498 1.0153128237839528 9 51 592
1.5830896531337215 0.7209573497525437 1.0071466712654664 9 51 636
3.537961389966395 0.876459853445035 1.0832610436716976 9 52 35
3.5286913705020804 0.8854445082892917 1.084645816274012 9 52 37
3.468870345620869 0.8264892803436328 1.0723951268895344 9 52 65
3.4085015476413845 0.8194872005940756 1.0695432216306053 9 52 86
2.8002023149540136 0.7861435669031935 1.0475485996501215 9 52 284
2.7318070210776715 0.7631167797444351 1.0415827492410439 9 52 305
2.255003399708968 0.764793254226408 1.0293818595638613 9 52 449
2.1123149697230184 0.7638167606168373 1.0254627892807968 9 52 491
1.7050295065724201 0.7344480339647488 1.0094601454067431 9 52 604
3.4998741710921397 0.872362459436193 1.0786552815311699 9 53 49
3.450890290245613 0.8199265205191826 1.0677798124294289 9 53 72
3.384848886953764 0.810236575384224 1.0642687521023175 9 53 95
3.2345435488797207 0.8025647298503436 1.0589067564402397 9 53 145
3.168406881979617 0.7939191161437109 1.055584085441611 9 53 167
2.8388330643409008 0.7765457719738653 1.0437260829467199 9 53 272
2.7136476906275107 0.7877838609986587 1.0424824915393502 9 53 311
2.0737906633250867 0.7713363191208351 1.022619674016135 9 53 503
3.340851718112665 0.8180440609496502 1.0615614295418516 9 54 109
3.322650479540482 0.8069369968411859 1.0590315602060547 9 54 116
3.28774249896978 0.8001627840472292 1.0568586114653644 9 54 128
2.9154950786562015 0.7838728700959723 1.0440042618268381 9 54 248
2.8806077863016184 0.7791703264759442 1.0422138927487248 9 54 259
2.7488432352956425 0.7794857664677968 1.038785326826484 9 54 300
2.620832780557194 0.7971486613270999 1.0386551094446779 9 54 340
2.3448785821621385 0.776920167292013 1.0276225525149396 9 54 423
2.300712474070262 0.761494114609069 1.0236091486258592 9 54 435
2.2729567956958716 0.7707819631799557 1.0245874345381414 9 54 444
2.141189970303978 0.7804269571800395 1.0228792521280385 9 54 484
1.9054624123916906 0.7572539761320349 1.0123681803254243 9 54 550
1.8944276792347612 0.7559885068271162 1.0118428181546095 9 54 553
1.8852918985261784 0.758730406065236 1.0121066963222594 9 54 556
1.7732688758476836 0.7451615922031081 1.0066401615824003 9 54 586
1.7512530334254686 0.7436632584244913 1.0057812767432277 9 54 592
1.6218855347611882 0.7355103827604441 1.0008545167736713 9 54 627
3.5714728573655092 0.8699632837137536 1.0743693323862198 9 55 25
3.4896947999021104 0.8562695403359151 1.0696483121957905 9 55 55
3.377433700211408 0.8085548068936019 1.057788360954456 9 55 98
3.3106481656967244 0.8082644587312684 1.0559591841054443 9 55 120
3.2640428435989124 0.811675848894676 1.0553550078176124 9 55 135
3.2487505760733204 0.7982942707399849 1.0524592557156187 9 55 141
3.0094412409616056 0.798202939824999 1.046081402845831 9 55 218
2.8102713705213738 0.799316556087879 1.0409946084599009 9 55 281
2.0782989542810704 0.758639429417379 1.013971833058114 9 55 500
1.8426026095942731 0.7582835133864527 1.0076407948559385 9 55 568
1.6929995573513372 0.7298745747192565 0.9983796144875612 9 55 606
3.13740762821617 0.8006967356967487 1.0469095383168998 9 56 177
2.989953865506876 0.8083851071573722 1.0444153959487845 9 56 224
2.781862963976144 0.8080926205586794 1.0388047981685462 9 56 290
2.714643980251442 0.8026634063284199 1.0359914098611473 9 56 311
2.3952005390873676 0.7805080986314905 1.0233055087054277 9 56 408
2.1221134737038065 0.7766935627297444 1.0152987305424899 9 56 489
1.8817637292733722 0.753923658268377 1.0046091891782702 9 56 556
1.8184477886613233 0.7533834870865901 1.00281739025279 9 56 574
1.6064315628667607 0.7306093879294215 0.9928835242975885 9 56 630
3.506366060573049 0.8775705990790899 1.0683111776740253 9 57 47
3.4749677421202265 0.8519476956217704 1.062619745956133 9 57 61
3.2384743416319193 0.8072111620333589 1.047810790483707 9 57 144
3.211682610407532 0.8029676099506693 1.0462891743279574 9 57 153
3.166070998075263 0.8156132819857913 1.047459337092814 9 57 167
3.0432502336983855 0.809091666923065 1.042931351427692 9 57 207
2.753128712038854 0.8024066390288056 1.0338859159726026 9 57 299
1.7834068897784316 0.7482592579323171 0.9976327887624775 9 57 583
3.425382112766787 0.8249883917796128 1.0532144173592943 9 58 81
3.3765400597172297 0.8275301654314324 1.0523839967853088 9 58 97
3.1988714555518034 0.8074697897804106 1.0437691272627125 9 58 157
3.0338450003155635 0.8123162965961268 1.040249112112866 9 58 210
2.8487161651366906 0.8124344555550373 1.035285055064341 9 58 269
2.4788406471792337 0.8054097940265983 1.0239812293870565 9 58 384
2.41312982365552 0.788520514154361 1.018987355019174 9 58 403
2.2805481214393875 0.7899588086941329 1.0156906950988391 9 58 443
2.2280656290394014 0.7824341510282748 1.012840694788347 9 58 458
2.164400051745564 0.7736616339062716 1.009451271553527 9 58 476
1.933431905816274 0.7626689760433061 1.001131613667122 9 58 542
1.7145595233982553 0.7404581603110689 0.9909963985896723 9 58 601
3.4668844775634966 0.8451011546083924 1.0552311498235194 9 59 65
3.3135127627223504 0.8398081340525132 1.0500627386804804 9 59 117
3.310717961928538 0.8276231900192295 1.047641407173666 9 59 119
3.1393753925212344 0.8143534835238624 1.0404512081595674 9 59 176
2.7824881611697356 0.8229247663465213 1.0324457195761534 9 59 290
2.753730713157233 0.8147051204355866 1.0300853295472252 9 59 299
2.350887549387846 0.7925691207320746 1.014925062384679 9 59 422
2.2025389374039293 0.7879409328913032 1.0100205373758369 9 59 466
1.8861254597861261 0.7522511709567004 0.9945893862353429 9 59 554
1.8541763191134324 0.7514923563500899 0.9935789268551716 9 59 563
1.8266990566972425 0.7596984412403269 0.9944152826870013 9 59 572
1.6970696575159516 0.7361481069050488 0.9863745092780538 9 59 605
3.5462496858266195 0.869629066659545 1.0592045182606764 9 60 35
2.9890010889041276 0.8309823760250987 1.0365590311555493 9 60 224
2.8205255936238562 0.8195867608137484 1.0297685492163589 9 60 278
2.7287201838894672 0.8232117571744768 1.0279775720709154 9 60 307
2.4552332097889917 0.8029965316463739 1.0166212828845307 9 60 391
2.325615317748798 0.7856618380167748 1.0097337206187698 9 60 429
1.9762340663488347 0.7679069547233506 0.9967927210499851 9 60 530
1.9388717808752296 0.7541355967872874 0.9931038960157919 9 60 539
1.8107611031824264 0.7573232443159694 0.9902414514467809 9 60 576
1.7998414483118639 0.7498694443229454 0.9884976563423744 9 60 578
1.7376082847521155 0.7461716616883007 0.986088649545398 9 60 595
1.6794839369731678 0.7318567915729546 0.9817301187749983 9 60 609
1.5808144670920858 0.7297944937212657 0.9786484989064232 9 60 636
3.5027396353759013 0.8866118123965991 1.0584413053357138 9 61 48
3.4985881844025717 0.8745460549894153 1.0559659030461632 9 61 51
3.4636684200907153 0.841023924387412 1.0484502465192787 9 61 67
3.422369889916654 0.8399235780644054 1.047107654982471 9 61 81
3.348397238663946 0.8370917236520632 1.04453430000898 9 61 106
3.2067865163795863 0.8350876327008152 1.0402769202857263 9 61 153
3.161984862395029 0.8301205360316226 1.0380817286645845 9 61 168
2.886775696838384 0.8234641679365922 1.0292672203881121 9 61 257
2.709462459599303 0.818919385619129 1.023538009402781 9 61 313
2.314249633698857 0.7942460041216799 1.0079210267071224 9 61 433
2.2422663218935663 0.7768373171609211 1.0025482832990384 9 61 453
2.167493564337199 0.7761256134965702 1.0003681493682173 9 61 475
2.046767065926218 0.764346387920098 0.9947671084512673 9 61 509
1.782713976222514 0.7455346446249287 0.9838774484097316 9 61 582
3.5110717559403186 0.8966901299939738 1.057776702790682 9 62 44
3.4891093089651943 0.8704882658753428 1.0520023498838205 9 62 55
3.407927933868325 0.8589209615810343 1.0474935186247605 9 62 84
3.3891076631541575 0.8623584852658794 1.047656172368127 9 62 90
3.317215114596706 0.8542311188504579 1.0440810257092457 9 62 115
2.861781926699986 0.8247390564199848 1.0257744541763654 9 62 265
2.4731027120276114 0.7944806303707219 1.0091465267770603 9 62 385
2.443249349681186 0.7935759892583407 1.0081495791357884 9 62 394
2.3837213926807097 0.7938133042214885 1.0065645864965478 9 62 412
1.9000463809211112 0.7632985174079288 0.9872819345473257 9 62 551
3.5692502146480383 0.8753178206097874 1.052254971842831 9 63 27
3.2793991482076024 0.8399309215281439 1.0372312455332289 9 63 129
3.152960427525564 0.8337486941538641 1.0325195440476025 9 63 171
2.814629928153694 0.8122019665384905 1.0189157644354885 9 63 280
2.512100711895604 0.7921512190601951 1.0065954488573476 9 63 373
2.29573746236308 0.789463768700172 1.0001034718668314 9 63 438
2.01021124656094 0.77022671631903 0.9884132515774291 9 63 520
1.9913269486975647 0.766463259282639 0.9871442446956376 9 63 525
1.9330343360973807 0.7604386506574774 0.9843401642304885 9 63 541
1.8240146260926617 0.7457773859148065 0.9784204062840907 9 63 570
3.4579938894230966 0.8458111407804894 1.0403548267532927 9 64 69
3.3670828465121136 0.8606920531404241 1.0408271421560813 9 64 98
3.221750967594098 0.8425370072030771 1.033165034564421 9 64 148
3.036878647441974 0.8293329570759487 1.0254030762834656 9 64 209
3.023330339537075 0.8395794838675978 1.0270846664911375 9 64 213
2.783088711749594 0.8232299914761165 1.0171603819485835 9 64 290
2.3355480230606815 0.7891479410306583 0.9979452144083443 9 64 426
2.2502149660585977 0.7953941021591979 0.9968389843194146 9 64 452
2.0808318462116775 0.7759146853672649 0.9882460252771188 9 64 500
1.771649083162345 0.7553565594806175 0.9755707595259241 9 64 586
1.6934257553248624 0.7302327253138243 0.9683659112629727 9 64 604
1.5914529298644173 0.74078185750919 0.9676630521696081 9 64 634
2.996261572736775 0.8348288351734372 1.022340515065181 9 65 222
2.980722198812057 0.834938860115968 1.021931202827655 9 65 227
2.8338493044723236 0.8313046334948897 1.0171168595674904 9 65 274
2.7606860031054805 0.8140552242788877 1.0115950458012737 9 65 297
2.7165683455970733 0.8275594328189091 1.0131019157910222 9 65 311
2.4898066831262446 0.7979205922792445 1.0008076398247128 9 65 380
2.4118281172378806 0.7882160599264156 0.9966785554741202 9 65 403
2.12650749007895 0.7803310289348429 0.9871591147978102 9 65 487
1.8770747348187227 0.7410493278348509 0.9722842763022128 9 65 554
3.565435238667635 0.8757677532381212 1.0435193419483513 9 66 29
3.5415562128334708 0.8847022492931582 1.0446755759798303 9 66 36
3.5176082477773876 0.8792685664269231 1.0428993283423176 9 66 45
3.2506547104309886 0.8526090719118806 1.0300156358162704 9 66 138
3.007949542232962 0.8447079075493928 1.0216342883562874 9 66 218
2.554544255635708 0.8152695554745251 1.0029830881541006 9 66 361
2.103011779965998 0.7826141066641934 0.9837279619128544 9 66 494
2.0408370717066298 0.7727917885185855 0.9799903362241863 9 66 511
1.933048549381656 0.7642549843020745 0.9752425931219982 9 66 541
1.915691522984286 0.7644988851619348 0.9748081973823477 9 66 546
1.8571940440635961 0.7595407154116915 0.9721652413700231 9 66 562
1.7466399345232813 0.7512064674810535 0.9673816710541152 9 66 592
3.5882831436445883 0.8714211752722612 1.0403495976257844 9 67 22
3.5351835092958432 0.8732562889915534 1.039239396194163 9 67 40
3.4253921960595752 0.8689826264650624 1.0352850370026363 9 67 78
3.2948152553721517 0.8467396222982408 1.0270537496018346 9 67 124
3.2187075642213303 0.8348713574330437 1.0224814790772712 9 67 150
3.1821015400133676 0.8498608076658711 1.0245379654995106 9 67 161
3.1551165995056767 0.8477327492473061 1.0233444715083568 9 67 170
3.1102471068890534 0.8417845021327715 1.020864502803245 9 67 185
2.85618264919947 0.8337097598912819 1.0120869884404136 9 67 267
2.3165738611184974 0.7962700713301467 0.9892726493758062 9 67 432
2.030125312555107 0.7731264864246099 0.9764896579250653 9 67 514
1.9779396310027946 0.756429665414954 0.9715947395289173 9 67 527
1.9437893472511205 0.7661101919418603 0.9726284613400379 9 67 538
1.8777291219739696 0.7596614087013946 0.9694519478610213 9 67 556
1.8418625241737439 0.7653642780972836 0.969619749963184 9 67 567
3.4617760181967823 0.8677634534982868 1.0331070750944584 9 68 66
3.390601676630042 0.8688732598651856 1.0313346434914683 9 68 90
3.33053575398693 0.8609698900993679 1.0280066914831818 9 68 111
2.9817026325343523 0.8332031977448526 1.01243762338166 9 68 227
2.7675077357673277 0.81813155077418 1.003287665366042 9 68 295
2.732005068602239 0.8115051323516305 1.0009154436601728 9 68 306
2.3696824921721675 0.7960009427657084 0.9875083545302243 9 68 416
2.1185031894583903 0.7805614186497829 0.9772416171191579 9 68 489
2.0472912880363796 0.7826989064741638 0.9756811235677463 9 68 510
1.8604426337782178 0.768700625517083 0.9675229989211295 9 68 562
1.7997634041375439 0.7803172036192267 0.9682234491152131 9 68 581
1.7428308245087054 0.7598844397733358 0.9623868398915915 9 68 594
1.7041800951154928 0.7545135058023913 0.9601862580177216 9 68 604
3.3852186394827486 0.8594486318465315 1.0262555753645266 9 69 93
3.3553674025517553 0.8595853362948009 1.025440678079505 9 69 103
3.250450449560283 0.8467814481583882 1.0198013624372946 9 69 139
3.021391271010903 0.8430644528502877 1.012552707225596 9 69 214
2.8407616479920987 0.8347783123153842 1.0057179065564603 9 69 272
2.4620954551989405 0.8112867346198813 0.9901109595923272 9 69 389
2.431071235382362 0.804340083732777 0.9877831390426985 9 69 398
2.3214673836199884 0.8041693643227226 0.984650582627398 9 69 431
1.9423073539949143 0.7807140563095165 0.9690372592287424 9 69 540
1.8270962208313022 0.766615224085023 0.9628365521395247 9 69 571
1.7494589285819862 0.7538628642883611 0.9579787967022406 9 69 591
3.5716358145792055 0.8677267997734222 1.0303094042496534 9 70 29
3.5196264454084902 0.8735805470118576 1.030066153131463 9 70 46
3.491870579235319 0.8694720652566863 1.0284134420022242 9 70 56
3.325119712738101 0.8520006205498347 1.0200027888648575 9 70 114
3.1880656849321394 0.8569158815156395 1.0171486625409643 9 70 159
3.1110051461975092 0.8441362173706359 1.0122710211514812 9 70 185
2.8944655155066763 0.8344026499906283 1.0040768598957936 9 70 255
2.553166902023736 0.8071940096308468 0.9886628612096002 9 70 361
2.4770110107539907 0.8035583376720077 0.9857362869930986 9 70 384
2.186442480100352 0.7920799587095952 0.9750740552562072 9 70 470
2.1569842369935235 0.7952596239637293 0.9749076588839646 9 70 479
2.017995758972313 0.7808727862583067 0.9679343106868126 9 70 518
1.807389462978434 0.7707049139811264 0.959817067258753 9 70 577
3.4633054219046415 0.868916009251447 1.0245270048010715 9 71 66
3.420601068675534 0.8730644273144208 1.024190410377044 9 71 80
3.2312934830094777 0.855223086669957 1.0150092586191957 9 71 145
2.8855327260816748 0.826338300175333 0.9990258901875744 9 71 258
2.7837412760115847 0.8123162033220652 0.9931492754473138 9 71 290
2.7549556007483416 0.8164682567524892 0.9932101033519145 9 71 299
2.4462877049831655 0.7991837219490046 0.9807456189569077 9 71 393
2.4151647183779503 0.7932816599016719 0.9786061405095008 9 71 402
2.402466929325875 0.7962561212825094 0.9788755265558029 9 71 406
1.9875598062349613 0.7836804411260003 0.9643827842215162 9 71 527
1.8893816542211042 0.781664076549438 0.9611570133787821 9 71 555
3.4549792950819063 0.8607550594784363 1.0195796693718595 9 72 70
3.192905298877454 0.8523525557956113 1.0102821713533578 9 72 158
3.044288158723116 0.8407537589292708 1.003548095107697 9 72 207
2.5238331134794683 0.8093745600900131 0.9819416407255458 9 72 370
2.386141975970774 0.8133231220642623 0.9788455484396716 9 72 412
2.173501893719278 0.7961936027711891 0.9690962657373263 9 72 474
2.148411014214797 0.8021170303194085 0.9696450944347277 9 72 482
1.7172011200516137 0.7764655898705701 0.9518178293385986 9 72 603
1.604918959000332 0.7560769673444221 0.9442436529197987 9 72 631
3.495696584461621 0.8725007029078318 1.020298660399736 9 73 55
3.4111609667916856 0.8695007740991758 1.017222410201727 9 73 84
3.4060007314165635 0.8484403158618115 1.0125346446156471 9 73 88
3.36021299596287 0.8609795801990405 1.0139214251101154 9 73 102
3.2759223469837915 0.8620451241201381 1.011728503823962 9 73 130
3.128513949916696 0.8565013041518386 1.0062969100495434 9 73 179
2.9888929337409174 0.8381370130317236 0.9983257572432298 9 73 225
2.92080253957243 0.8247454948816186 0.9934823135066906 9 73 247
2.5424366843654216 0.8024185400112915 0.9777952800326032 9 73 364
2.2245684563331114 0.7981223998872404 0.9677334395731672 9 73 459
2.100801615770346 0.8030982899889971 0.9652487869249637 9 73 496
2.067487707292675 0.7963490633099244 0.9628365583606049 9 73 505
1.7935149416352765 0.768422503670138 0.9489429196673643 9 73 580
1.7536940688894145 0.773378991429517 0.9488667713902248 9 73 592
3.457305519702332 0.8747148150912936 1.016708224218106 9 74 68
3.224315855278934 0.8519876372674484 1.005046923737111 9 74 148
3.185364118811074 0.848718669635582 1.0032126154148306 9 74 161
2.8575363524012993 0.8288533079205558 0.9894356307645884 9 74 267
2.813053189185919 0.8239490599768584 0.9870864715277126 9 74 281
2.7777314416260293 0.8153140916133363 0.9841913893887333 9 74 292
2.5051578399187964 0.816905132850587 0.9766697288382932 9 74 376
2.4536647282172614 0.805373776948934 0.9726787726184319 9 74 391
2.265730189850692 0.8130098470882159 0.9689130731352789 9 74 448
1.9180732797104303 0.7945959278871801 0.9548790298936416 9 74 548
1.592051911355788 0.7613378677017681 0.9382451634693287 9 74 635
3.5495568984099033 0.8806192535968687 1.0177053751461818 9 75 36
3.152697200244492 0.8454582317333368 0.9985064649992883 9 75 172
3.1398809256142193 0.8484348597500353 0.9987865027127297 9 75 176
3.0326878993018678 0.8420121552511446 0.9942737338327511 9 75 211
2.83225479898611 0.8342608330527512 0.9867676022595353 9 75 275
2.7266282952917904 0.8226274322295257 0.9811597350998449 9 75 308
2.0220678093751534 0.7967397365299009 0.9550718569163642 9 75 518
1.828540226899189 0.7772716315781514 0.9452013420240776 9 75 571
1.7615460877239815 0.770964114369427 0.9418789475071943 9 75 589
3.5789749528065564 0.8676818711018497 1.0127555547011848 9 76 28
3.3688649720971844 0.8677857177822996 1.0066627362070517 9 76 99
3.359113110321649 0.8603524831684255 1.0047394997761439 9 76 103
3.1759425339864933 0.8544109722194748 0.9980975201467536 9 76 164
3.1225507925280978 0.8440617502004639 0.9942609314264863 9 76 182
2.3026520971814683 0.8032567684192435 0.9613964770815266 9 76 436
2.2335723625234807 0.8195154312973358 0.9629715757686159 9 76 458
2.1694499410105026 0.7987495856637286 0.9565252787913177 9 76 475
1.9807639106411872 0.7901565130269708 0.9491379623113014 9 76 529
1.9456380377362668 0.7815255550226112 0.946212002682242 9 76 538
1.8593481418227413 0.790896790298593 0.9457671511870918 9 76 564
1.8006100918685077 0.7656633602084497 0.9384922606165174 9 76 577
1.7408265985843308 0.7669842013460477 0.9370434372714856 9 76 594
1.615069711744568 0.7721158209885339 0.9345147709158219 9 76 630
3.5242484120979825 0.8741518264381956 1.0096180394108099 9 77 46
3.4208823808350224 0.8654371188645535 1.004660080249893 9 77 82
3.3960396634925702 0.8591151240143375 1.002529049595751 9 77 91
3.3322481365163137 0.8617494261383238 1.0012498392280884 9 77 112
2.892831958099051 0.832860610660102 0.9819860978709118 9 77 256
2.543037596837708 0.8086046765567556 0.9663715054772395 9 77 364
2.2637847413540144 0.8209048519579274 0.960942384263261 9 77 449
2.1538700532491144 0.8136870870372312 0.9561256627612837 9 77 481
2.089503076616933 0.7960125259857846 0.9503165616295547 9 77 498
1.7892648131883995 0.7589711966378585 0.9333092883807435 9 77 579
3.2975425347948795 0.869823969862684 0.9990183158019095 9 78 123
3.277930008061707 0.8641424142998129 0.9971705517920412 9 78 130
3.2505076938808637 0.8651330093988929 0.9965874323881081 9 78 139
3.2173501200637076 0.8645098723302138 0.995474657838833 9 78 150
3.165972445402916 0.8469194020756048 0.9900281278804481 9 78 168
2.488254428568383 0.8355233789536791 0.9675839095341117 9 78 382
2.334893833611326 0.8131971723050684 0.9580836111499729 9 78 427
2.2982823910120826 0.8138434976179174 0.9571536871776974 9 78 438
2.124383739841508 0.8082715566323457 0.9508017926448175 9 78 489
2.0343748527863283 0.7884251883527853 0.9437162516994476 9 78 513
1.9428214874785126 0.7778423102643326 0.938659453034214 9 78 538
1.9302679736102253 0.7960455451613719 0.9423666438656824 9 78 544
1.8976792659472035 0.7933473512724487 0.9408059659512624 9 78 553
3.597266961509507 0.8574759851938594 1.0020510327627812 9 79 24
3.52648218289566 0.8870386160209407 1.0066332752611977 9 79 44
2.561675522878929 0.8255938733009964 0.9643347669322779 9 79 359
2.3085481411508644 0.8156771408666692 0.954636768405823 9 79 435
2.164636333002636 0.807925031133911 0.9486462236503501 9 79 477
1.9513747471515175 0.7747723788856538 0.9348817954204627 9 79 535
1.62747805735141 0.773083479550069 0.9249538575324987 9 79 626
3.419961858835033 0.8648060060171265 0.9954637585491355 9 80 83
