2.5007683423387244 0.7224767556475518 1.072828387047987 9 8 223
2.512417162632906 0.9250266297715768 1.0786290927664666 9 9 179
2.5072255000902413 0.7051600181583533 1.0666831369716543 9 9 226
2.5085058473308144 0.998147111812592 1.0793859169196685 9 10 163
2.5020655860832868 0.8279130002681538 1.0703495713544042 9 10 201
2.514752106211635 0.7607513250563966 1.0645984529395156 9 10 214
2.513271856702786 0.9485324043979906 1.0676484642218256 9 12 174
2.5282518128445686 0.8791792118447967 1.0612871936102908 9 12 188
2.515532757588273 0.7803258262301189 1.0571990042210049 9 12 210
2.53566477904142 0.7032372607910364 1.0496194922609856 9 12 224
2.541324993554374 0.6094384264828896 1.0431495392063856 9 12 242
2.5044402663725593 0.9920675233127544 1.0675201960949954 9 13 165
2.491190039547142 0.8332760559108101 1.059789960074417 9 13 201
2.509989930660233 0.9911195768643509 1.0585324999248051 9 15 165
2.5130689368527728 0.9723047421829747 1.0568921112848593 9 15 169
2.525855909181074 0.9135359411313868 1.051292828740635 9 15 181
2.499509872178419 0.7541838202154025 1.0452636543625573 9 15 217
2.5060146058080908 0.7072508286566563 1.0413481324875105 9 15 226
2.506530618505181 0.5958158104320781 1.0342907621442154 9 15 248
2.527604553734727 0.9361576762128611 1.0483131289143641 9 16 176
2.535679777470609 0.8779554167899688 1.043397430883168 9 16 188
2.507008834723446 0.8232795023576454 1.0442654728620306 9 16 202
2.5274312009931283 0.687977927392613 1.0325883871411166 9 16 228
2.5248350234906725 0.6740803572462124 1.0320991829796957 9 16 231
2.5206650706100873 0.7603716870417188 1.0339285430728014 9 17 214
2.522096078407579 0.7055984754721383 1.0301884510508987 9 17 225
2.51794186844199 0.976456860665777 1.0441355907883811 9 18 168
2.544212904419945 0.9173642248533519 1.036243747304428 9 18 179
2.5273274728894037 0.8772072663659998 1.0362271720797225 9 18 189
2.501930250541003 0.8357899677428644 1.0332333915338356 9 19 200
2.497022773988847 0.8045633433307811 1.0319353350635505 9 19 207
2.5132452831854435 0.7298394454398089 1.024488602378063 9 19 221
2.5447738190267053 0.936402649720193 1.0290361315059289 9 20 175
2.5213870046003826 0.8802179418795474 1.0289436027959837 9 20 189
2.5111369768324106 0.8230064799785708 1.0267264074482183 9 20 202
2.5031566061841337 0.8735275802155142 1.0271608188946955 9 21 192
2.5066986529138067 0.7771797994398617 1.0200856922874033 9 21 212
2.511601680071507 0.9848782667464683 1.0292447820138082 9 22 167
2.5138113761970518 0.888488757346737 1.0222935139394402 9 22 188
2.506136498953459 0.7139932385548193 1.0115673808336816 9 22 225
2.508064575900435 0.7917404151907022 1.0123055927348341 9 23 209
2.500816629601284 0.7608442173035479 1.0113271393884236 9 23 216
2.5218308441542048 0.6822099716863139 1.0025056811962516 9 23 230
2.482372596918334 0.6244131362611207 1.0048306910360458 9 23 245
2.536984591352907 0.9545816848617488 1.0147651272995144 9 24 172
2.4943404553852693 0.8546643389611905 1.0146541272421377 9 24 197
2.502810231460151 0.8229570908241972 1.0110599274471916 9 24 203
2.4951091758641657 0.8873924974006067 1.0126305998664369 9 25 190
2.5019413938958732 0.8141047492650513 1.006313878323445 9 25 205
2.5135286706216013 0.7658287779960444 1.0009972922483228 9 25 214
2.5027981758516864 0.6963204068721898 0.997812832175645 9 25 229
2.519319745583246 0.6635729582890806 0.9927939519761887 9 25 234
2.504117996155756 0.7846688267018351 0.999568896145635 9 26 211
2.5242061925286694 0.9919133715062234 1.006994072119482 9 27 165
2.5199132607573067 0.9618043869800854 1.0055172653391504 9 27 172
2.5005733737584324 0.8009362430190561 0.9970308914270999 9 27 208
2.5204080456091424 0.6584420550817833 0.9833882623478317 9 27 235
2.5034807385294995 0.7415539962514925 0.9878830248051637 9 28 220
2.4938559604899506 0.9079248183281377 0.997518375782242 9 29 186
2.5275504475323265 0.7964238487013824 0.9704803273210374 9 32 207
2.511843505760336 0.7291479689156859 0.9680126050548827 9 32 222
2.504478509983109 0.6516211075208556 0.9633187135329122 9 32 238
2.524414873104468 0.8462619608603796 0.9705284529595787 9 33 197
2.5253654961668843 0.9993144180636255 0.978062816782864 9 34 164
2.506506838410969 0.7469310238950977 0.961519724441663 9 34 219
2.489375964017637 0.704634823956964 0.9611923268257783 9 34 229
2.4838235888007603 0.6920749260167793 0.9611765475417162 9 34 232
2.540131815366787 0.8327373878452742 0.9404430340043737 9 39 199
2.48786857791974 0.6352016125467659 0.9335614921768419 9 39 243
2.527169623837896 0.9421296233147592 0.9475710913465563 9 40 177
2.4927171912282025 0.7841159971289511 0.9406400713389359 9 40 213
2.506182171166876 0.7087543760461077 0.9318611256880478 9 40 227
2.508746283824815 0.9945999498141271 0.9511048808308485 9 41 167
2.5093924673964425 0.7629666233827479 0.9269354904993572 9 42 216
2.50104039802391 0.8542740107224938 0.9319342101341684 9 43 198
2.4853828227284853 0.8220932169898625 0.9320846373233556 9 43 206
2.5114028443000938 0.6722215342591493 0.9006255643347837 9 46 234
2.518119811413548 0.8539451428081044 0.9110984337191135 9 47 197
2.5180777219242665 0.7906190970740468 0.9054159542195744 9 47 210
2.500985832326878 0.6201161792183931 0.8933859474079027 9 47 245
2.4992929045481125 0.8230559323224333 0.9075256956732528 9 48 205
2.498558907764596 0.7094768184427223 0.8928334603235178 9 49 228
2.506653688144071 0.8928920583802138 0.9036687789378629 9 50 190
2.4869709439545393 0.6326602644756367 0.8834714403975243 9 50 244
2.5046541329275827 0.9456103420871391 0.9045929164686961 9 51 179
2.511934383771444 0.9149658042834209 0.9002896389271334 9 51 185
2.495858924659366 0.8783625786928078 0.9000561258556656 9 51 194
2.511309609349425 0.9296963582211575 0.8974130724854846 9 52 182
2.4859292246417617 0.8346480017012492 0.8935168760517137 9 52 204
2.4872984739555752 0.7203509533435382 0.8824712830272926 9 52 227
2.5064369598846405 0.9873506790330328 0.8994932417229395 9 53 170
2.505629792066759 0.6822293761020088 0.8614175825796412 9 55 233
2.499366299123333 0.674991373450752 0.8573764001297945 9 56 235
2.4832977250091197 0.6251317951672415 0.8557945199315931 9 56 246
2.470436259633652 0.6050177401343302 0.8564639861406048 9 56 251
2.4977241728157704 0.7326206507781341 0.8542016297118934 9 58 224
2.5013882496386524 0.7003701665379163 0.8502293277385256 9 58 230
2.51020421357558 0.6495902971972467 0.8433417628964371 9 58 239
2.5331893540959056 0.9765511662385475 0.8667031713829167 9 59 171
2.4847501036236688 0.7736708247442627 0.8564538235654582 9 59 217
2.506586019223704 0.7496281700310921 0.8448811629274644 9 60 220
2.4848267336363374 0.8431405674516137 0.8544559997684146 9 61 203
2.5106176186592313 0.6448126420640528 0.8287117019645381 9 61 240
2.5171361472993086 0.9926120153672952 0.8584873457760129 9 62 169
2.507856330368584 0.9818840599058587 0.8593607397363789 9 62 172
2.482679907147537 0.7854319388388038 0.8444701196008351 9 62 215
2.4904065481277486 0.7369550146466117 0.8378217055112579 9 62 224
2.5057922248579687 0.6891013399005816 0.8296034958701616 9 62 232
2.5126173414304276 0.9292716631242771 0.8484572234067704 9 63 183
2.4845330664146186 0.7700064602362604 0.8379189483555181 9 63 218
2.503539240473885 0.8853548369399413 0.8413420926880514 9 64 193
2.5044144479581307 0.8413816080954519 0.8365385096365889 9 64 202
2.469481404380717 0.8113101215725012 0.8409341220092318 9 64 211
2.485971996132825 0.7445262693912342 0.8303614142419325 9 64 223
2.486879121232546 0.6722639459678466 0.8225823736018528 9 64 237
2.5115524414809682 0.8682262676638842 0.8332823358009046 9 65 196
2.48681986056091 0.7087388233215486 0.821783743470995 9 65 230
2.481528896010433 0.6332471171868161 0.8102374399947554 9 66 245
2.499040157285568 0.9779491392430615 0.8387669450390121 9 67 174
2.4696813019142767 0.8415856980501846 0.8305589408467033 9 67 205
2.4963667679847665 0.730685633725765 0.8127400124073938 9 67 225
2.496248868307628 0.6946982733060183 0.8088922170021108 9 67 232
2.468891418486794 0.6236487605386556 0.8072736870393106 9 67 248
2.4854160590131125 0.9175811560462106 0.8307993682839417 9 68 188
2.474948732350362 0.8202538883822572 0.8225564485324582 9 68 209
2.5133246097775523 0.9786740859993628 0.8267764661107273 9 69 173
2.500587725291528 0.9361819486862618 0.8249687335154671 9 69 183
2.48995645535017 0.7032291316268902 0.8018441297042328 9 69 231
2.4685117570860253 0.6189021343867456 0.7974012030564874 9 69 249
2.4888341794479194 1.0104227505463645 0.8313103464047273 9 70 168
2.5330249241550002 0.9536083850776456 0.8151127188431151 9 70 177
2.5034289661469042 0.9261179236786907 0.8187274909927476 9 70 185
2.470880900787499 0.8225906111332466 0.8146137827449051 9 70 209
2.466601203211452 0.8046206920858858 0.8135919957452262 9 70 213
2.4738365712888633 0.8559741176363445 0.8130991229924055 9 71 202
2.515901240469237 0.748997888831842 0.7916858900959135 9 71 220
2.48786025555901 0.7201675378872541 0.7948171344865768 9 71 228
2.4877833081884746 0.6787346037952204 0.7902241579343349 9 71 236
2.46637954921945 0.6415053962594452 0.7909203428610302 9 71 245
2.507858949486726 0.9679198630557115 0.8133748390157989 9 72 176
2.5299114004713275 0.9461215154961511 0.8059125156019625 9 72 179
2.4832453330270075 0.9200453548108034 0.8136035963511619 9 72 188
2.4948240926849428 0.7430280105000779 0.7911108242275168 9 72 223
2.4705505447692064 0.6131323440676542 0.782060701159032 9 72 250
2.501646860114958 0.8800042453500767 0.8003567523859867 9 73 195
2.5018520260837454 0.8653282312567021 0.7986499600979117 9 73 198
2.501206671702227 0.7199766812884725 0.7823587617766599 9 73 227
2.451148475362776 0.6491888448945884 0.7858124269459988 9 73 245
2.5077385139164567 0.9880588179178573 0.8022023856503523 9 75 172
2.4816508745785675 0.8050403751509514 0.7872151352980308 9 75 212
2.4977143662479304 0.7272395800667151 0.7745502396992474 9 75 226
2.4710810012201874 0.6294482166566209 0.7694845267225251 9 75 247
2.507207353029569 0.9129754430691727 0.7891260760991725 9 76 188
2.490545666643006 0.8757004758259276 0.7886938134521402 9 76 197
2.4780584898408633 0.8561717709644208 0.7893437971570247 9 76 202
2.464167007943946 0.6699144652777689 0.771006345641578 9 76 240
2.5229033862962433 0.9792266602718092 0.788600536461381 9 77 173
2.5071228469029156 0.9756550145130174 0.78735828504656 9 78 175
2.4732730673084866 0.8144650267038758 0.7763803188461562 9 78 211
2.462170032630975 0.6869819563694763 0.7639986461528699 9 78 237
2.478342974489597 0.6637477731491424 0.757445793014796 9 78 240
2.47755795513323 0.9393082658685192 0.7855340000878589 9 79 185
2.475525155258345 0.8484840282933654 0.7752442214817883 9 79 204
2.469619480420438 0.7963578978344863 0.7704644127070885 9 79 215
2.4467890262514946 0.7252221684458937 0.7674502951167774 9 79 231
2.4813784921774182 0.6413222018881846 0.7492823183839539 9 79 244
2.4759254170349183 0.7789507229770167 0.7622209027732598 9 80 218
2.4516014914678737 0.7539525966574063 0.7650459902015428 9 80 225
2.44815701888757 0.7094391037052499 0.7605483006343847 9 80 234
2.5021197003250912 1.0067785277134633 0.7786778574068064 9 81 169
2.4877279049705177 0.9507633880755586 0.7753906212741213 9 81 182
2.486515271648244 0.8986056931062533 0.7693992560081342 9 81 193
2.481373349196412 0.915368934133741 0.7680762035926448 9 82 190
2.4735519405390836 0.8845380381712652 0.7662256327414623 9 82 197
2.4683432796991025 0.8670929367776293 0.7653679355844474 9 82 201
2.4678905813714747 0.8180275006985307 0.7595214906786169 9 82 211
2.4980550930671783 0.9810927578705788 0.7674692319277664 9 83 175
2.4585667544508487 0.8716478223445461 0.7590892210494536 9 84 201
2.4461076483156736 0.8521630172194781 0.7597377436173331 9 84 206
2.4188390452528226 0.8194253742388127 0.757777115789831 9 85 215
2.4695984183479402 0.8827587803816872 0.748517773426077 9 86 198
2.462188538362332 0.6199850879930695 0.7126091356982381 9 87 250
2.3025324747413727 0.8115071643029956 0.7720715915496816 9 88 227
2.4782397111541807 0.5960148471269195 0.7006660259797965 9 88 253
2.3410881212529526 0.8815457763602065 0.7668406075349131 9 89 209
2.3045448769836816 0.8539715975867901 0.7725262986269035 9 89 218
2.3008000864466336 0.7834179668465269 0.7644447284004454 9 89 233
2.2883693377423246 0.76952300512054 0.7658011919334665 9 89 237
2.3095302854937882 0.8234555484561656 0.7628883575166374 9 90 224
2.2736928466268926 0.7470936610101295 0.7621357401030712 9 90 243
2.418725247754127 0.6470165679709226 0.7124605865187982 9 90 249
2.4637502617111773 0.5927746819934139 0.6891229606164654 9 91 255
2.2618281726999805 0.7775384263729921 0.7601437315659472 9 92 238
2.295887126668681 0.8349877473243272 0.7544480940587512 9 93 223
2.462106945301131 0.5939251107786334 0.6798126682226043 9 93 255
2.2750231812228923 0.8254370226535566 0.7496536315538928 9 95 227
2.4499613034380308 0.6384155226829793 0.6741026450659544 9 96 248
2.46086601764273 0.6168911063479985 0.668344442320027 9 96 251
2.4627442115078666 0.5941095439017481 0.6647862853734814 9 96 255
2.261105982366031 0.764293341150851 0.7360906898504659 9 97 241
2.284669503766945 0.7784251004204608 0.7226836474319416 9 99 236
2.261956096819673 0.759393304088235 0.7261317682636547 9 99 242
2.464580214760098 0.6430032645710351 0.6510865881561632 9 100 246
2.45317414605537 0.5940460755684394 0.6473744282675216 9 100 256
2.4497159606643146 0.5960994016838681 0.6385902921031044 9 102 256
2.43205810440308 0.6270248312757412 0.6378023906971254 9 104 252
2.4600145591888567 0.5969850311389906 0.6208130165838195 9 105 255
1.3753688631083836 0.26137725781870746 0.7999369380899335 9 124 466
1.4689391550704178 0.2627477948736012 0.7635694844514564 9 126 447
1.7254025548242697 0.2659676503759727 0.6761582270649736 9 128 402
1.3775153848119193 0.2609424020137583 0.7836863774531728 9 128 465
1.3258768821748526 0.2532625070100696 0.7946717371382972 9 129 477
1.2940532006337386 0.2515007631479049 0.8005567864185583 9 130 484
1.3712260479494285 0.2652579386476257 0.7746857695014099 9 131 465
1.303573718284021 0.25557633901981003 0.7944439012520962 9 131 481
1.3853782643351884 0.26424083159512035 0.7621721999000267 9 133 462
1.400915293002146 0.2619536389568342 0.7488690496901964 9 135 459
1.3719433059314625 0.26098085074986455 0.7580468994053473 9 135 465
1.5017502966251235 0.2708569573877089 0.7137428446498212 9 136 438
1.3429304025842352 0.25990512642628527 0.7633249737270941 9 136 471
1.2935839029567815 0.26246505016073507 0.7797680938917787 9 136 481
1.303440265525309 0.2652934872760686 0.7693906856519969 9 138 478
1.4641742529215487 0.2675990906477499 0.7089579530239587 9 140 445
1.3519996932390692 0.26693578175770116 0.7419875788383647 9 141 467
1.5372715927932321 0.2641878555150592 0.6756948759551142 9 142 432
1.2272678303295779 0.25512779262065144 0.7775548537896306 9 142 496
1.4196658928459192 0.27254672472917174 0.7083413222049176 9 144 452
1.3582737301317944 0.2627164439660836 0.7272439922263895 9 144 466
1.214652059200197 0.2632317037172365 0.7757504484901978 9 144 497
1.2076436497428167 0.2557890001705212 0.7767563857955256 9 144 500
1.3793688014982228 0.2658742376772367 0.7166952214084952 9 145 461
1.3993570127517643 0.276140845844123 0.7077640589647916 9 146 455
1.2920085857498969 0.2591933297048765 0.7372817669823621 9 147 480
1.2784262572794327 0.26426063204675865 0.742865871096478 9 147 482
1.2658496292455885 0.26731264503448093 0.7438835574958136 9 148 484
1.4761757691332902 0.2758012648976227 0.6690058958372297 9 149 440
1.4369366601657436 0.27220632095953956 0.6818788482799729 9 149 448
1.4256583976329986 0.2722358416644308 0.6816578472906087 9 150 450
1.317231611714067 0.26532491705193895 0.717966095630941 9 150 473
1.3050667291934381 0.2655540350298411 0.7103966380052266 9 153 475
1.4891310222511396 0.2723408749627083 0.6255805694430251 9 158 437
2.1089350056042253 1.6225948255260416 0.4429826123023608 9 213 59
2.072270365780762 1.5971241298207368 0.44455503701183496 9 215 68
2.064174633714997 1.6757286244397505 0.45197816517539224 9 219 46
2.003198850920027 1.5544523012809224 0.44399942348303245 9 220 84
2.0340411067730297 1.6633899585299992 0.4544144639521486 9 221 51
2.038730131586602 1.6429579483248986 0.44671976474798547 9 221 57
1.975907809249951 1.5563792394180536 0.4488974072134264 9 222 85
2.0577152339126936 1.692710705998226 0.4426793661414883 9 223 42
2.034567461904062 1.6516199584558031 0.44256027338750714 9 223 55
1.994009631825834 1.6030926764409594 0.4444875766522731 9 224 71
1.9497768081039775 1.5520487984790114 0.44751637915249964 9 225 88
1.9760065476087902 1.593295962801199 0.4419998871932369 9 226 75
1.914525141381071 1.5219453584939606 0.4436140976671783 9 228 99
1.8876080895578324 1.4962731181182836 0.44537355976530413 9 229 108
1.9042821305549766 1.5921594536207206 0.45980543044153555 9 230 79
1.8787504402874413 1.5786551559846291 0.45211689751174355 9 234 85
1.869782032425347 1.5501211112491764 0.4484604253465332 9 234 94
1.822558432792872 1.5298120539742426 0.4538955924575776 9 237 103
1.8177324885048505 1.5206577378484183 0.4536840993635469 9 237 106
1.8270641196666046 1.5129047668399398 0.44263783010890756 9 238 108
1.7911186229930907 1.5212131158677078 0.45097890956967546 9 241 108
1.7948447777442726 1.5111645926744535 0.4420355536759042 9 242 111
0.6668963141575616 0.23289647787055956 0.6401380514908209 9 243 633
1.763300421069657 1.5115799348745442 0.4502135359071906 9 244 113
1.7406063574731787 1.4957018877806099 0.4369470998944769 9 249 120
0.6501921501148078 0.23137583561306974 0.6061272564244106 9 255 635
0.7412238324182857 0.8409164051204892 0.7227257497280815 9 263 476
0.7499449578526939 0.8788247193141048 0.727091301684105 9 264 463
0.7422820612906751 0.7996272365814088 0.7058180230256496 9 264 486
0.760086673958877 0.9142245806926853 0.7299091065246266 9 265 450
0.7482365097310196 0.8856046887235273 0.7183195381830056 9 268 461
0.6322709302517387 0.25695575903976886 0.570591161214985 9 270 632
0.744564416508456 0.920314856022272 0.7199746513248712 9 272 452
0.7431541106799641 0.9451874737290508 0.7202649334590158 9 275 445
0.7448766636647934 0.9632929401030894 0.7195129499228147 9 277 439
0.6460531468222278 0.2519210929496394 0.5317804586922326 9 278 625
0.7446886278042504 0.975260671382282 0.711966681788397 9 281 435
0.7471976998692207 0.9990947242528795 0.7128646452419521 9 283 427
0.7462843895403795 1.0121369939827312 0.7091933321277387 9 286 423
0.6361273550199608 0.25157918904447785 0.5003412149451232 9 288 625
0.6321000532264593 0.24919205115054188 0.4830988912008438 9 293 625
0.6222790166263057 0.24595945325714474 0.48799680712037286 9 293 629
1.0765188878272638 0.70032308137019 0.3676043133794298 9 294 416
1.094458241158492 0.6999904461091024 0.3479880594949123 9 296 412
0.6356941324667172 0.24693997970258108 0.4686293601321123 9 296 623
1.0425337162369785 0.7095435110872508 0.3798313086981473 9 297 421
0.7884410115641018 1.2521544410509666 0.7328555143847226 9 299 331
0.6873708494562484 0.3711970375468914 0.4705114987782517 9 299 584
1.3656540212950612 1.5040630916540358 0.45820615814058696 9 300 152
1.127457053702449 0.6937671047355736 0.3079245200184233 9 300 406
1.1143340025209467 0.6915673516836125 0.3111236512221309 9 301 409
1.0534981002329014 0.6956084595073107 0.3512876845675381 9 301 421
0.9919933161666314 0.718139669901102 0.39877398881691173 9 301 430
0.7931380713891525 1.2838541047121395 0.7334123429488577 9 302 318
0.6046836558139775 0.2460676581068557 0.46498400669256124 9 302 632
1.1613472032614567 0.6981743900684605 0.27491019099757374 9 303 398
1.3367806281605557 1.4866694221650996 0.45534677632092846 9 304 161
1.1459790519554098 0.6879845444510282 0.2765169514347814 9 304 403
1.1172700277433936 0.6958104460072698 0.2935733007133261 9 305 407
0.9504002716848103 0.7146403964484145 0.4082289262276695 9 305 440
0.938544138040984 0.7095646922896353 0.41394617618177754 9 305 444
0.6095782982594005 0.2983356216151112 0.4701706539533499 9 305 621
0.5983505144003178 0.2732952694043833 0.4679216722908619 9 305 629
1.0874730439888398 0.6958487033051564 0.30851429395135277 9 306 413
1.1950936365329046 0.6986963682672029 0.23548797898940843 9 307 391
1.3200908609864233 1.4926601366803514 0.45370149371153823 9 308 161
0.7585690277845761 1.2826214330490502 0.7388584732858712 9 308 327
1.1196972122109332 0.6915923051715949 0.27732739941499895 9 308 407
1.071899604030831 0.695883372386086 0.31009267938920404 9 308 416
1.021390350206326 0.6959335172267545 0.34299903809771304 9 308 427
0.9537006502197363 0.7079229168025951 0.38768348400723496 9 309 440
0.6940417130220549 0.4820982583551765 0.4705077759673719 9 309 559
0.6600863215818324 0.4289953970439435 0.47227522520580445 9 309 580
0.5889310807084553 0.2923904666411741 0.46624146409339673 9 309 628
1.086621698153503 0.6941118279294571 0.29121465776945543 9 310 413
1.056185677938268 0.6866912772338198 0.3083057062143004 9 310 421
0.9988490933084151 0.6997007878408674 0.35091873454711076 9 310 431
0.896639394357087 0.7080092181265971 0.4211378900523215 9 310 454
0.6425539312746041 0.4103468727454054 0.47284347114543723 9 310 589
1.1289830452351766 0.695245120870081 0.25946279236546266 9 311 404
0.9808555004329111 0.70439487747775 0.36046174497220873 9 311 434
1.007857288059955 0.6932716690701288 0.33423540359888837 9 312 430
0.9584076329707849 0.7050271359336071 0.3714524449685914 9 312 439
1.1435523848662856 0.6994888335786862 0.24260724676903056 9 313 400
1.0393211533396292 0.6877677305894558 0.3070818137540381 9 313 424
1.0196948686885778 0.6941540850222043 0.3225762112779369 9 313 427
1.2872947688294578 1.492128902155738 0.4531195447716567 9 314 165
1.0675726260597962 0.7010720749319193 0.2892632085963589 9 314 415
0.6633928014792801 0.48085065263675775 0.4716643903378115 9 314 568
1.0927191147819022 0.6992360364002996 0.26746212633545663 9 315 410
0.9776866311818653 0.695449036682362 0.3427042616605356 9 315 436
0.9146120975603241 0.7152015371953864 0.39254501114154405 9 315 447
0.9068734480851954 0.7149385738915754 0.39760359671998513 9 315 449
0.8870599787977083 0.7105911422980771 0.4091104004467283 9 315 455
0.6360599014236465 0.44828644122631367 0.4733889101013362 9 315 583
0.568343168872182 0.2860257444612073 0.45097327362549855 9 316 634
1.2632723349057704 1.4997059692039922 0.46128159451063633 9 317 165
0.7467566653369346 1.3106534456339283 0.7332939643466831 9 317 319
0.5836354004650232 0.3615108489673857 0.46682169679805097 9 317 616
1.1984848347412527 0.7092911556414552 0.18702569086319443 9 318 387
1.1853689047896796 0.7064794468231601 0.19474699206503643 9 318 390
1.0559510468474618 0.6958386909235144 0.2777358985630687 9 318 418
0.6645058036752778 0.526170406688792 0.47407842029162905 9 318 558
0.6441530836019944 0.4663150286193183 0.4639932836127276 9 318 576
0.5709551487186364 0.33266513253904817 0.460178145829635 9 318 625
1.0886103055142664 0.7103678398062818 0.25712457855895 9 319 408
0.8124960687108362 0.7028954898146376 0.44086543306058656 9 319 476
0.641186746210043 0.5086554983863163 0.4791867562911971 9 319 569
0.5644451010178314 0.3076013407862246 0.45083658101985513 9 319 631
0.7495653251456662 1.3417075519296757 0.7357245868041807 9 320 306
1.2470469520508403 0.7097515964867525 0.14497925252049826 9 320 378
1.2357215790090579 0.7097010034821614 0.15264404124797615 9 320 380
1.1385697580880605 0.7049436899288277 0.21666250162465484 9 320 399
0.9798294312377047 0.6892312473950786 0.3180843076434239 9 320 436
1.2413355081695472 1.5070806025257109 0.4647047807611975 9 321 165
0.9690285690412703 0.6813382928070963 0.31808806790271316 9 321 440
0.8946870728271029 0.715031078604635 0.3822542795386705 9 321 451
0.8722627142438589 0.7093646207813875 0.3952443623447399 9 321 458
0.568925223299725 0.3555273914262418 0.4595074471230576 9 321 621
1.2181490588165511 0.7142615741308636 0.1569993055059693 9 322 382
1.0548282168235246 0.6894019295895737 0.25854999623833064 9 322 419
1.0217872368344372 0.6950014979846177 0.2833840659686493 9 322 425
1.0119868669866035 0.6958284813472153 0.2904136067347647 9 322 427
0.9931996721857916 0.7016915812417912 0.3056155990834646 9 322 430
0.8471862411747606 0.7068360140728105 0.4074507310107516 9 322 465
1.2270513916653634 1.50327957565546 0.46579403850383194 9 323 168
1.1597841383509988 0.7027740079650311 0.18764435410254454 9 323 395
0.826474097461531 0.6949219202229107 0.4129640227451008 9 323 473
0.5610713940165675 0.32533207332295766 0.4451990150178995 9 323 628
0.745063143557933 1.3367895881964273 0.7260911696408601 9 324 309
0.9344199282324201 0.6849017753983793 0.33079795952369584 9 324 447
0.9189924651919956 0.6886147692328721 0.34291987869937923 9 324 450
0.6807463980241093 0.6076082737695538 0.473871205196851 9 324 535
0.6341091263832496 0.5244152622453213 0.47212861532930117 9 324 567
1.263930268246083 0.7027197392998406 0.10651759041063813 9 325 376
1.1752022927351344 0.7064632422142494 0.16463156636210696 9 326 391
0.7470245599168485 0.6918109494381948 0.4551755559073942 9 326 496
0.5672319737917566 0.4033232089807708 0.4615402056081712 9 326 612
0.5651067218300939 0.38391749015088017 0.4550641527748711 9 326 616
1.3395662588006683 0.6734387711344891 0.03216864450844592 9 327 369
1.1078510037086071 0.700977195242168 0.20451412900450427 9 327 405
1.07297977951499 0.69171330911514 0.22493896973485406 9 327 414
0.9306656657550558 0.6867430006176167 0.32179375930177345 9 327 447
0.8692343587778639 0.7031188691137134 0.371215695806149 9 327 459
0.7779755529073487 0.6991341162533735 0.4329958994901504 9 327 485
0.6442475733856039 0.5746981044916717 0.4747750022462722 9 327 553
0.6030178916108181 0.48685322104596707 0.4673160972863881 9 327 584
0.5562615770819096 0.28813925282861064 0.41812267558422267 9 327 634
1.2029511719827912 1.4978189507595459 0.4624360271835777 9 328 173
1.0818930593228426 1.079474306578998 0.3742477642997426 9 328 321
1.3060883168621569 0.6700915135568288 0.049017044434339185 9 328 375
1.089658745166337 0.7035952031288608 0.21375301750872788 9 328 408
0.9835518963664711 0.6981155215011856 0.28547890901237793 9 328 432
0.8130644897450896 0.7028151741559183 0.4062961655816486 9 328 474
0.5576288219489824 0.34710138444195815 0.4376475100220243 9 328 624
1.1577443112410573 0.7011987293675528 0.16063512825696735 9 329 395
1.124158926013847 0.7084160558577275 0.18712168968614074 9 329 400
0.7487772696456718 0.6954561042812255 0.4443900295402132 9 329 494
0.6547124245442977 0.5993466883655465 0.4704043380276506 9 329 544
0.556730525828065 0.39657123643094505 0.4549898660028464 9 329 616
1.0769854847824556 1.1008631072730055 0.37876679496549337 9 330 316
1.0739831971093832 1.0845240012768613 0.37408384611302026 9 330 321
1.352309524562836 0.7236538487568216 0.028715134337336412 9 330 357
1.315315671675508 0.671620961693568 0.0330603179095168 9 330 373
1.1037195827509996 0.7031191438964499 0.19469492974267233 9 330 405
0.9297313258466735 0.6900933500822704 0.3114238873008204 9 330 446
1.2944105127846524 0.6630416075456076 0.039113145958573625 9 331 378
1.0549525759461629 0.6927221255951288 0.22016519949058866 9 331 417
1.0329390899761801 0.696095037661258 0.23707818370345923 9 331 421
1.0078132753509477 0.6887854465932515 0.25172755242091194 9 331 428
0.753385824060415 0.7008702602213144 0.43598441925151854 9 331 491
0.7234364229087411 0.6874707978796657 0.4514912523568857 9 331 503
0.6992940439486811 0.6715221616378944 0.4618443634784948 9 331 514
1.3162539421928259 0.7009402360661865 0.034472232165338346 9 332 367
0.9971591003910567 0.6898515485763548 0.2553561702413103 9 332 430
0.8344242394114283 0.6996531832796333 0.3744754093529914 9 332 468
0.7674077350219688 0.7037621292649809 0.4235607367840275 9 332 486
0.6301867601642823 0.5922692993301082 0.4738684754874163 9 332 553
0.5975179731276816 0.5164909827885755 0.465233670176026 9 332 579
1.179476707625526 1.5061801137481403 0.4647295413651866 9 333 173
1.2243709742899762 0.6929852452090857 0.09121447966013085 9 333 384
1.0116007541599221 0.6880654476300501 0.24003389171962564 9 333 427
0.96466201197555 0.6958905584873074 0.2766084805615139 9 333 436
0.9261251243866093 0.696547261349713 0.30421293935229743 9 333 445
0.9153966175325934 0.6899229789426602 0.3090377785646945 9 333 449
0.8972094890120758 0.6875906204603317 0.32095524620716165 9 333 454
0.8793450928509556 0.6901147630041014 0.3346843919826912 9 333 458
0.7406264786483537 0.6980129564962367 0.4363756213742942 9 333 495
0.6859781609621121 0.6705716804204032 0.46359968072109625 9 333 518
0.6580609698269877 0.6428684327085086 0.47175722053910896 9 333 533
0.614388490233051 0.573118359323662 0.47342094800514145 9 333 562
1.1988913507316696 1.544934572948053 0.46372921881197815 9 334 157
1.0632915309574846 0.6967800028210289 0.2025511470758563 9 334 414
0.8693424842963111 0.6919470843412787 0.33851605213228675 9 334 460
0.8607736673140118 0.6930358146870206 0.3450722395754413 9 334 462
0.7966964196049275 0.7043947213857611 0.3954559046030721 9 334 477
0.5522670418127955 0.37719161052461514 0.43139759798031596 9 334 619
0.5747934171928668 0.5020255849907351 0.46438497731462514 9 335 589
1.1770606464469116 1.518864289788395 0.46123841749743666 9 336 169
0.7123408088507897 0.6981186118377178 0.4455131898094846 9 336 503
0.674110257559198 0.6759178196271405 0.46346911747736197 9 336 520
0.6546842324845871 0.6542116505668987 0.4681647546924994 9 336 531
0.6081424214702749 0.5799791201629465 0.46997325037458815 9 336 562
0.5572455244584864 0.2690709412968948 0.37437066341451186 9 336 633
1.0730519286031 1.0916401410531251 0.35034106084479877 9 337 319
0.9188102018041906 0.7016833114200618 0.29496259024938554 9 337 445
0.8510355499700566 0.688110344728394 0.3378890089219464 9 337 465
1.3070908762837692 0.7364423855765576 0.025651222329815315 9 338 361
1.1610534007279023 0.7027822181824259 0.11656557659511768 9 338 393
0.7963969298356254 0.7008129341436091 0.37869670299463554 9 338 477
0.6355001077846281 0.6395869057127701 0.4685331087798157 9 338 540
0.6283936066399114 0.6270305466754118 0.46828585632996034 9 338 545
0.5811125054257741 0.5386633185766598 0.4645756237637122 9 338 579
1.1251414988740835 0.7062973014577252 0.13929416399162786 9 339 399
1.066623617599853 0.6997882831721669 0.17884112941101504 9 339 412
0.8928933560831188 0.6874350714645507 0.2992430359484004 9 339 454
0.5669954612308977 0.5163508061162712 0.461591962937832 9 339 588
0.5621060049064621 0.234952367586581 0.3443009125632024 9 339 635
1.3187390800586094 0.7764640628546484 0.024297054947354013 9 340 351
1.0471203049677282 0.7042755628396578 0.19038186065538332 9 340 415
1.0389147999125086 0.7029561620270701 0.1957704256917121 9 340 417
1.025892801101118 0.6969827133208444 0.20265013607602134 9 340 421
1.0150257806719456 0.6986969705877291 0.21127825653088061 9 340 423
0.741343104472151 0.7081914871393677 0.4140616026763002 9 340 491
0.7128909727894477 0.706870171806881 0.4341482599399238 9 340 500
0.6930214136369577 0.6988228859496879 0.4451055625982565 9 340 508
0.6592815121732076 0.6849144899023245 0.463606878144754 9 340 522
0.5622923475786751 0.25259543212553526 0.3477184759193146 9 340 632
1.1759317990806903 1.5717191795762189 0.4672038911791456 9 341 150
1.1532649949336855 1.5190201537286685 0.4609231498412023 9 341 172
1.1326392451149945 1.4896385657924975 0.46324018362501396 9 341 185
1.248667563453252 0.6720069817635561 0.02510651379304263 9 341 383
0.8167841072262602 0.6851645305141985 0.3453900071035072 9 341 474
1.064532384586928 1.0855771646700716 0.3341311210971112 9 342 322
1.2829100210303892 0.7594017812026614 0.03295434418690646 9 342 360
1.2631327592074064 0.7256001601958739 0.03273723999943323 9 342 370
1.2058776032724787 0.6532897769409058 0.04319650610348247 9 342 394
1.0738384936383962 0.7052566133326952 0.16225375662449482 9 342 409
0.9990181547774997 0.7045535738315498 0.21663136822530538 9 342 425
0.9641972879381733 0.6989180668179553 0.23963428686691723 9 342 434
0.9478994570173969 0.6978402275797784 0.2510777957490824 9 342 438
0.6788390365657275 0.6992129489245149 0.4483175665810273 9 342 512
0.6686217157349388 0.6961571497820291 0.4544585867265556 9 342 516
0.5578510249615074 0.3190241425165361 0.37172339571858815 9 342 623
1.3055913977681093 0.7856191371818388 0.022724759981752385 9 343 351
0.9175872134049357 0.6980268618858114 0.26908997875862584 9 343 445
0.55333227122313 0.3851036543227022 0.39988507028711195 9 343 614
0.5610539425190956 0.233672216806748 0.32825873704341446 9 343 634
1.132605015667876 1.5015491432190542 0.45793419183199235 9 344 181
1.235338857252257 0.6822857436241647 0.024194509709555723 9 344 383
1.103081096911445 0.7046706937780269 0.13128741764593244 9 344 403
0.7019287717217626 0.7091048094465364 0.42836855859600553 9 344 502
0.5929552377877227 0.6060152302699617 0.4634771248469389 9 344 560
0.5608371065462568 0.514239068780644 0.44698615932722063 9 344 589
1.0703287168992164 1.096175612216681 0.3225450145485249 9 345 318
1.076647560548434 0.7053735778321022 0.1464227532290252 9 345 408
0.7612390917732308 0.6986510581088041 0.37630380766209726 9 345 486
0.7317759995189155 0.7069522249353071 0.4016950770533727 9 345 493
1.2670381725911948 0.7706383658162637 0.029517050016635515 9 346 360
1.214038495848814 0.6848935733923998 0.031017161506262658 9 346 386
0.9216333155433292 0.6907209379598791 0.25015066338231295 9 346 445
0.8447681409085437 0.6777152554115382 0.3013538335360959 9 346 467
0.7850992305657167 0.6887439227652259 0.3504031193832604 9 346 481
0.611414364460213 0.6601133141606548 0.4664353612320664 9 346 542
0.553353750125563 0.3906393578113718 0.39078729310275095 9 346 612
1.294967572122648 0.8265137936767055 0.028445617633672704 9 347 344
1.0489565424987948 0.7073391062880443 0.15859674898685494 9 347 413
1.0317773988115266 0.700461080381791 0.16832339093216864 9 347 418
1.0152718880566147 0.693208900381493 0.17738412388159475 9 347 423
0.6272487470812034 0.6803243259182938 0.46003208488574576 9 347 532
0.6040645261083671 0.6469219743693722 0.46250063733283486 9 347 547
0.5554678585346113 0.24396630290353816 0.32055623881453466 9 347 633
1.2184918425132543 0.7105336042043882 0.029032492726958292 9 348 380
1.1892070814247244 0.6704395590887442 0.03308647121403885 9 348 393
1.165113760217571 0.6570043510935448 0.04509183560468344 9 348 400
1.1174547187974262 0.6880031906766415 0.09437155505244244 9 348 403
0.9930124729313441 0.7016017031685979 0.19318229573960388 9 348 426
0.8867947798267362 0.6866566169171022 0.26574757993263765 9 348 454
0.5900667480475572 0.6204914943973172 0.4576379573253626 9 348 557
0.5611257269714577 0.5666738195305803 0.4553498546838157 9 348 578
1.2812949640893647 0.8266166087073883 0.02870908824393803 9 349 346
1.2632882341261766 0.7970314827852814 0.02901247396171147 9 349 355
1.019224829795327 0.6973897228517034 0.1672382072196119 9 349 421
0.9715710854114294 0.6997865460696471 0.20395190191346035 9 349 431
0.7687116104631989 0.6888001028735904 0.3508100545618067 9 349 485
0.6519848417526883 0.6900103048249009 0.43866521726758956 9 349 521
0.6388088236666195 0.6921962245786586 0.44949424895215806 9 349 525
1.2114194469712138 0.7309021680164398 0.03341601562199514 9 350 377
0.8153010731984618 0.6876709328289743 0.3114030478707135 9 350 472
0.6724222735233933 0.6947259694413574 0.4217874245417699 9 350 513
0.5594183831825762 0.26757568035382695 0.3158255628662212 9 350 627
0.5592178249983814 0.22599918386036055 0.29740721730872277 9 350 633
1.2693607991967804 0.835057791669608 0.03149120980323805 9 351 346
1.256425599755743 0.816249889334016 0.03280162548572374 9 351 352
1.2385381962551785 0.7868543005645039 0.03309559083920832 9 351 361
1.0256320823510998 0.6940782914414465 0.1518318676042114 9 351 420
0.8883546119023555 0.6868893499199642 0.2519802295941924 9 351 453
0.5598129505049468 0.3379455229367787 0.34297421475740353 9 351 616
1.2098627042372225 0.7512684603533659 0.033785311004132845 9 352 373
1.1976570449437496 0.7066270625518734 0.022926939455476525 9 352 384
1.1705415649853093 0.6855152757500587 0.03391644170756747 9 352 393
1.1719001159289308 0.6635067906183174 0.022990665082486705 9 352 397
0.9990301297553099 0.6969492639217425 0.1686352117814358 9 352 425
0.8669852441428425 0.6877684970912286 0.2642647595534504 9 352 458
0.8196745116587654 0.6847590840665378 0.29865407763746243 9 352 471
1.2533857156266315 0.837088395586538 0.034569432421261315 9 353 348
1.2323694413374766 0.8056388943261785 0.03630339039805541 9 353 358
1.1483345260083098 0.6699626951483453 0.03875738048046973 9 353 400
0.668507329348607 0.6923531603257826 0.4125678490608673 9 353 514
0.5558803054008881 0.5630087821287446 0.4395524810697702 9 353 579
1.1046078093544915 0.6660424867003178 0.06528308277069739 9 354 409
0.8843243208658343 0.6841234067748838 0.24099688783910422 9 354 454
0.6419167741240944 0.6902657711863278 0.4281277133710486 9 354 523
0.6103964508480757 0.6848775990480811 0.4496577769540424 9 354 535
1.2220670177748172 0.7938107018560832 0.028884901195398438 9 355 362
1.0070552009055915 0.7008833456055985 0.1506936026247101 9 355 422
0.935175586785574 0.6917442840094168 0.20138287573524316 9 355 440
0.8958038805401085 0.6938325815902011 0.23237266371529985 9 355 449
0.848495336292294 0.6934115243287162 0.2682774833460453 9 355 461
0.6742421595402635 0.6953499486899748 0.4021131642108047 9 355 511
0.5674424235509121 0.631599283164469 0.4546201027990744 9 355 561
1.1749552331999353 0.7349972681722976 0.03315716921846601 9 356 382
1.0160227580041123 0.7054693759331787 0.14135060008870415 9 356 419
0.6529909502049168 0.6987147294999618 0.4161730106834405 9 356 517
0.5885176433227217 0.6812563765933499 0.45756331495386493 9 356 543
0.5561709142026561 0.49501408091955357 0.3973607008895197 9 356 590
0.5623068222204786 0.3844985281785729 0.3422460772069207 9 356 606
0.5580105252461437 0.261907299769641 0.2896084338348601 9 356 626
1.0767404136579366 1.5221453648753276 0.46400675037604255 9 357 181
1.2406772990913704 0.8455612955107303 0.02834969405734622 9 357 348
1.2082130644578508 0.7849103825549424 0.025516296972827535 9 357 366
1.173066941409163 0.7609968966192777 0.041561543230719256 9 357 377
1.1578048276478254 0.7046652250845904 0.0274938657287076 9 357 391
1.129410581885579 0.6546137356898003 0.026387165703155135 9 357 406
0.7545984913361328 0.6852464095527502 0.3282768672565166 9 357 488
0.7438253787647875 0.6811012577642805 0.33465319880881506 9 357 492
0.7005411324648636 0.7009186429600991 0.37696931345407436 9 357 501
0.5799948509765189 0.6803581374632324 0.4601391922907494 9 357 546
1.0912287074362876 1.5599560958060414 0.46677205267292043 9 358 165
1.01832201693275 0.7015552781737078 0.12857766473904197 9 358 419
0.9957443539110402 0.6958520276126678 0.14335466866488344 9 358 425
0.9787210728774451 0.7044748001373773 0.16043350474591955 9 358 427
0.9562922034817647 0.7046436010373813 0.1777936358096155 9 358 432
0.7836579117548104 0.682788037427353 0.3007760568699409 9 358 480
0.6258998272470312 0.6968856352242963 0.4288134674213744 9 358 526
0.6147667010219449 0.6865235962471785 0.43263150224550384 9 358 532
1.0637279183320034 1.0913091204003804 0.26853962231237105 9 359 320
1.1596852498573869 0.7471043045301626 0.035663018328292884 9 359 382
1.125921629797475 0.6619131282629449 0.02248806002086634 9 359 405
0.5551763724437044 0.2396576969864359 0.26904138671862743 9 359 629
1.210876980731863 0.8250544729823135 0.027097821670963196 9 360 357
0.8825097445908513 0.6856638285573624 0.2172934273472995 9 360 453
0.5602963297750478 0.3210027392805843 0.2984909904040838 9 360 615
1.142499984502125 0.7216436843899283 0.02735333758187508 9 361 390
1.102894634764772 0.6470604614835898 0.023544197733990524 9 361 412
0.9831622117470549 0.6972428893991474 0.14001419508701174 9 361 427
0.8455322388446862 0.6913365750446743 0.2443697872251811 9 361 461
0.8304745976239325 0.686051922948419 0.2536333900614782 9 361 466
0.822134145878187 0.6870574924412094 0.2605904553680256 9 361 468
0.8133430835137174 0.6887633394552997 0.2682232997373264 9 361 470
0.8060516385090234 0.6885996432415782 0.27382119213281997 9 361 472
0.7973373631156666 0.6904254099757376 0.28144996182002924 9 361 474
0.7705204268164441 0.6878241998184071 0.3011100515812859 9 361 482
0.6580609494620935 0.6988034093553268 0.3937188296456158 9 361 514
1.501816150271346 1.323588150576089 0.022345918617727722 9 362 202
1.1969070247421107 0.835514361292579 0.03298656760963459 9 362 357
1.1783895587474913 0.788312078589275 0.0254507455265347 9 362 370
1.1525007649778254 0.7618574757981564 0.03333652637095219 9 362 380
0.7376648183971103 0.6842347595375178 0.321035171224727 9 362 492
0.5571736106118848 0.549310051989504 0.399081451084105 9 362 578
0.5586852239029255 0.5179950033728491 0.38331100590012834 9 362 583
1.489053489886443 1.31692184445098 0.02433377578247331 9 363 205
1.477298747659272 1.294333583201427 0.022979568361291003 9 363 212
1.1190733428031852 0.7172849013971161 0.033761841686017924 9 363 395
1.1142055954322565 0.6914506232900721 0.025495649266580767 9 363 401
0.9585001432141043 0.7030448818679167 0.15287425201314475 9 363 431
0.8377624434240238 0.6894306865297191 0.24107776143023862 9 363 463
1.0824449694626814 1.5945161168703679 0.46921714641266377 9 364 153
1.0934691907306187 0.6597366457846312 0.021965195926971992 9 364 411
1.0755935250192605 0.641581045784269 0.027493799156661503 9 364 418
0.9159575661735267 0.7013329673450623 0.180973633754139 9 364 441
0.8936960530079217 0.6931186467300969 0.19461306195889927 9 364 448
0.6716517411290379 0.6930708375765366 0.36907709957899293 9 364 510
0.557792016856993 0.2896006995410523 0.26924610683993433 9 364 619
1.1982552186201925 0.8802700611500195 0.038231389373366564 9 365 347
1.18432512445584 0.8445004651835162 0.03237224531296912 9 365 357
1.1421875302654192 0.7744065576609087 0.03259051332219509 9 365 379
1.1239109233187348 0.7416285319978597 0.0315666099956875 9 365 389
1.1071490674833733 0.7224064758879083 0.0357310600380365 9 365 396
0.5823839899544032 0.6890248293736372 0.4337301617068223 9 365 541
0.5756855936483241 0.6813459648279867 0.43539562709738977 9 365 545
0.5620652172562959 0.4516835065373739 0.3380017135115474 9 365 592
1.46065864983826 1.289909827678069 0.01935194531080131 9 366 215
1.0868486610219883 0.6857531094974332 0.02957030089947099 9 366 407
0.8597968474264 0.6882393838053806 0.2103327623387763 9 366 457
0.7625822449388999 0.6884532738194236 0.2873261930151323 9 366 483
0.7095215327138106 0.6767067748023212 0.32374490841867254 9 366 501
0.5596809037752012 0.6644569710125965 0.43647438153050455 9 366 554
0.5585372899843317 0.6151784586922258 0.41409609866698216 9 366 564
1.4340422195407514 1.2810442129503432 0.031382552962812005 9 367 220
1.4163402773554334 1.25336013272228 0.032303976127356915 9 367 229
1.1573309160429317 0.8231828837916872 0.03387964383162467 9 367 366
1.1414611135517165 0.7983640881606235 0.03470570028797715 9 367 374
1.029639271062999 0.6569690328814008 0.05640139662311627 9 367 424
0.9692178127887039 0.6978042272290468 0.12370865556334576 9 367 429
0.6302511283367034 0.702031562650185 0.3946939581101161 9 367 521
0.6149317818515874 0.7031861127178582 0.4073977530358446 9 367 526
0.6008549524321962 0.6979131179512992 0.4160681279621983 9 367 532
1.0642536498298518 1.0935543487888923 0.23172988664012273 9 368 319
1.1824999644156444 0.8729693231596077 0.03264346272092822 9 368 351
1.1236830941468081 0.769837665314669 0.03040111490124442 9 368 383
1.0634595874330097 0.6617190236552704 0.026905934144511257 9 368 416
0.8651939846429947 0.6944539091282822 0.20032271872455532 9 368 454
0.7334043558464828 0.6834389605116924 0.3000018896816692 9 368 492
1.1499294546314718 0.8380082833796691 0.03708625170212265 9 369 364
1.0743872656797893 0.6962059602514357 0.029721509103417976 9 369 407
0.5586993559070266 0.5272004694616956 0.3609158403965498 9 369 579
0.560438719893336 0.34480110986961776 0.2724436754930717 9 369 608
0.5562038812478688 0.32147577780159287 0.26468984996584366 9 369 613
1.0251957058797048 1.5361284831667337 0.46663273037910447 9 370 183
1.019081942532607 1.525176853850784 0.4662848812481242 9 370 188
1.0104106558357226 1.504664601847489 0.46340598209316575 9 370 197
1.401637960341023 1.2601140133220143 0.03275359327933014 9 370 229
1.1709790548862369 0.8813131774101424 0.03610118625628678 9 370 351
1.0556612748816772 0.6787236458670964 0.03144686153780052 9 370 414
0.9836898783896726 0.684338439986611 0.0918075852549407 9 370 428
0.9278771327994311 0.6971505536698959 0.14266853122200174 9 370 438
0.8320028577448741 0.6848471353490639 0.21359821927543887 9 370 464
0.805886976160997 0.6843215014863362 0.2342730690184922 9 370 471
0.7981533574981767 0.6847391858893246 0.24067013172504748 9 370 473
0.7904534817744446 0.6852094751690685 0.2470653586413456 9 370 475
0.6369783055631835 0.696823947905872 0.3756095060806899 9 370 519
0.5578721925092391 0.6565246513862846 0.4196903177968081 9 370 555
1.384554007696683 1.2326355351791178 0.028448041377921562 9 371 238
1.132023794300189 0.8238172177809497 0.034916964708465725 9 371 370
1.1247301851221279 0.811022223073365 0.034629079774592286 9 371 374
1.0697101174030164 0.7097016517906625 0.030149653803339893 9 371 405
1.112163129944885 0.7975705251271779 0.03340805018038706 9 372 379
1.081938922033341 0.7322720576106359 0.026282849583012524 9 372 398
0.8624053218492755 0.6940796377370151 0.18491410936083064 9 372 454
0.5507705912104305 0.21364876935674637 0.20448089512967238 9 372 629
0.9387247830229424 0.7070798081780558 0.12506714251057827 9 373 433
0.8975865874072253 0.7050845875146523 0.15738717421866433 9 373 443
0.7285759914137466 0.6845909508463977 0.28421690017571355 9 373 492
0.6712734586634941 0.6822528431097672 0.329449896408442 9 373 510
0.5639760062608615 0.44241185105622005 0.3001617222681041 9 373 590
1.0695341895481774 1.0892176582917856 0.19993662725774763 9 374 319
1.076250813086651 0.7662447733928137 0.03759475232742404 9 374 392
1.0717235239904106 0.7508621500770623 0.0337973756091805 9 374 396
0.9764184007578136 0.6737680281412188 0.07371093370857906 9 374 431
0.88640636868346 0.6976608914241518 0.1583840407696333 9 374 447
0.5602864940755078 0.4173397173164155 0.2869390295314185 9 374 595
1.4278079364607987 1.31253796708316 0.012736389181570384 9 375 213
1.1243623167450698 0.8614746453889588 0.03998417408104471 9 375 363
1.0925087567793272 0.7992199277563778 0.03557891225882592 9 375 382
0.9951840663324139 0.6622169983627915 0.048055627504887566 9 375 429
0.7534042306812425 0.6862860279542891 0.2566863137196158 9 375 484
0.6606362147962289 0.6766509487710586 0.3275372435302768 9 375 514
0.5612717939081012 0.5779206294838231 0.36033091118677074 9 375 567
0.5507015870258488 0.24903722338851986 0.208625851208754 9 375 623
0.9811482138884458 1.4926303431565833 0.4608803327094524 9 376 206
1.3892755118643765 1.2667321493908754 0.016945645536273313 9 376 229
1.345706737502871 1.2234433820716015 0.031367622019173425 9 376 245
1.339907147855243 1.2143733996135215 0.031669502806616734 9 376 248
1.0820088845374825 0.7889586988409978 0.03429002961772243 9 376 386
1.015253149689864 0.6652329879128724 0.02831170011523998 9 376 424
0.8166424347727668 0.6886970694040897 0.20205418272817832 9 376 466
0.9985513859899315 1.5360130951108053 0.4645130581104788 9 377 187
1.1076954565736206 0.832525163863362 0.029770111818091305 9 377 372
1.0779072162550063 0.8066219105958969 0.04147202577874065 9 377 383
1.0427181853149827 0.7226341232423736 0.02909176540508218 9 377 407
0.6440084895783649 0.680958147442823 0.33543545612373515 9 377 518
0.5621630366557303 0.49229141544130917 0.3099185088503895 9 377 581
0.5566050606730858 0.23540993225999784 0.18839221658282157 9 377 622
0.8792404712099149 0.6976142268583454 0.14632570198324224 9 378 448
0.558882447025866 0.3921683449757851 0.25931706342354 9 378 598
0.5526601891837511 0.31357744534801846 0.22572686375796236 9 378 612
0.976841775010969 1.5205397371892508 0.4680139044166305 9 379 196
