2.4988568140914014 1.1062334889605774 1.3037413153436446 9 28 198
2.505968214506117 1.0478541506441732 1.304657657305925 9 28 210
2.482967802851371 1.018362729060044 1.303927081085038 9 28 218
2.538755365363796 1.0650583323970735 1.3017009856427686 9 29 204
2.4663757023910384 0.8698531837926666 1.3003974679221568 9 29 250
2.4548724816386955 0.9775155867967249 1.2904492787135777 9 31 229
2.453549252347532 0.850924416103219 1.2914023366788459 9 31 255
2.453447465605979 1.0163346817041046 1.2858935520239627 9 32 221
2.4679170665101355 0.9966630975762866 1.2866077926819337 9 32 224
2.483102965354114 0.9232343678299568 1.2834343548020455 9 33 238
2.4579855951042413 0.8343595971910949 1.2830457481475468 9 33 258
2.4627761967446036 0.8170496632781445 1.2833404034641316 9 33 261
2.486468407286959 0.8727346590918079 1.275183629185925 9 35 248
2.436839146064328 0.7987790631669556 1.273780985773656 9 35 267
2.5165495864057124 1.1077250190300145 1.270879452448625 9 36 197
2.5303960323770465 1.0706051221452673 1.2672371426215125 9 37 204
2.4404253792125266 0.7772701511759021 1.260890784963292 9 38 271
2.5180169364281593 1.1036218523365824 1.2582470189295638 9 39 198
2.507822667405981 1.0601845859641355 1.2580195228495257 9 39 208
2.4552707803271923 1.036581955772185 1.2564739453168396 9 39 217
2.4685581680272692 0.9744490499812126 1.2569914807532203 9 39 229
2.530588459373787 1.0857065926382152 1.2543883773336453 9 40 201
2.4761683581463 1.0481375434990807 1.2528563644106245 9 40 213
2.495324343935315 1.06520347369851 1.2491464658967741 9 41 208
2.486236287028601 0.9391341624769651 1.2446038115548133 9 42 235
2.4512158769518395 0.8544527194765725 1.2436483031246066 9 42 255
2.4512405889964306 0.7884348843260658 1.2436200995886812 9 42 268
2.457274480419545 1.0276277258104272 1.239651671320447 9 43 219
2.463391068914857 0.9872052642450346 1.2397551904336321 9 43 227
2.475284403036211 0.9632744459886822 1.240022331704935 9 43 231
2.516075069160088 1.077855713889851 1.2368995854494202 9 44 204
2.474424523845523 0.9049644107166435 1.2355779506300595 9 44 243
2.436988129586573 0.8309841659373396 1.2345506742092667 9 44 261
2.468307336865268 1.0098737904120536 1.2313727479299623 9 45 222
2.4891341048513373 0.9633085821587515 1.231707345328573 9 45 230
2.46143930287318 0.8957288553822349 1.2309073012944483 9 45 246
2.4306286026817183 0.3350097733816859 1.2096921185625222 9 49 352
2.5106330748480796 0.9221537453857653 1.1208110283666333 9 70 238
2.496134735856304 1.0509038020261388 1.1194570307755192 9 71 213
2.5076241263287287 1.0079905557487394 1.1183172102465333 9 71 221
2.4747962424835053 0.8560785720721615 1.1152562398939914 9 71 254
2.479783559301196 1.071306283272119 1.1157901031549362 9 72 210
2.501425764718398 1.0251888944966372 1.1143756486410756 9 72 218
2.4839470308567333 0.8883626693475826 1.1068664346577348 9 73 247
2.489239703231663 0.8451679204340021 1.1057193024494518 9 73 255
2.4921671995321897 0.9999909299235428 1.1050446388734665 9 74 224
2.484300553767404 0.8268665417433889 1.100786490481989 9 74 259
2.5100116184576673 0.9439153593921685 1.0988012572086998 9 75 234
2.4734108815254805 0.9134460456334645 1.098691241293537 9 75 243
2.473571536967777 0.7691109757296086 1.0949096248566286 9 75 271
2.4606277956976554 0.7380928921078793 1.0943407773160296 9 75 278
2.4926177918192636 1.0776884952065857 1.0982465627612572 9 76 208
2.4946740053182657 0.9849224754332739 1.0957029094143844 9 76 227
2.483046837374666 0.8996509088915945 1.093637473145308 9 76 245
2.497277152299811 0.8784492021662791 1.0927784970706425 9 76 248
2.4933022770236963 1.0586610853671155 1.0933154250342867 9 77 212
2.488857698854721 0.9378262990260318 1.0900560213500738 9 77 237
2.481066179004082 0.8341698683158258 1.08734578894375 9 77 258
2.46857528223022 0.745326796496165 1.0851482231555107 9 77 276
2.47552241034387 0.978070528851599 1.0870131204400828 9 78 230
2.497380792662294 1.0191392604546392 1.083234174533565 9 79 220
2.5084408114929717 0.9255322381407245 1.0802167451932805 9 79 238
2.4734326048474355 0.8120227011213814 1.0777366357809868 9 79 263
2.473421068594539 0.7910862829848571 1.077122257346704 9 79 267
2.4525391756811046 1.0021060187423871 1.0794200375939222 9 80 227
2.4871006041842936 0.9642871411813785 1.0773899789870716 9 80 232
2.5083785659104696 1.0691353349941317 1.0755692522020377 9 81 209
2.5037919583915897 0.9127602127486427 1.0708534698083936 9 81 241
2.4551450497927823 0.7524701598051136 1.0672120913506509 9 81 276
2.460637214279173 0.9947479312214573 1.0701302300111055 9 82 228
2.478728275653961 0.7945674526739996 1.0632581064249993 9 82 266
2.485979090724376 0.8644658254152278 1.0606945292567906 9 83 252
2.465999542423326 0.8524885765126813 1.0609026308914609 9 83 256
2.515279872232642 1.0917867136568196 1.0627771174577028 9 84 204
2.4798915430270916 1.0173859018828029 1.0614044617366678 9 84 222
2.478142508862601 0.7952653549805992 1.054051443024247 9 84 266
2.441105844800201 0.7597076624762027 1.0540258603039496 9 84 276
2.5003855675127826 1.0539757506757306 1.0575289055889487 9 85 213
2.503906423700715 0.9642115975952819 1.0543481142506934 9 85 231
2.5031933155304102 0.9191747358315732 1.052833387231563 9 85 240
2.4730605807280712 0.8860649799056755 1.0481341820161845 9 86 249
2.4756612231134842 0.7968251366926868 1.0449262269023405 9 86 266
2.4826429431642096 0.7777711798296745 1.044021947462484 9 86 269
2.434623827267838 0.7313158190548783 1.0440370994986334 9 86 282
2.5032924999467574 1.0439053974103913 1.0481442721373262 9 87 215
2.483063604198809 0.8356330951826261 1.0414162114027512 9 87 258
2.5009429065709425 1.0884512104713653 1.0453799514746356 9 88 206
2.486848234473077 1.0013425759687986 1.0427160028393405 9 88 225
2.484726960063667 0.9122689189134019 1.0395379387437265 9 88 243
2.4898273470052916 0.8066757097111803 1.0354891849493928 9 88 263
2.422610903965548 0.7744983507788918 1.0367956811851058 9 88 275
2.420629026137684 0.7543764889834867 1.036133258507948 9 88 279
2.4269665391893227 0.7300636534994318 1.035010315137796 9 88 283
2.48246011072941 1.0423082235212608 1.039919522931366 9 89 217
2.494615244953326 1.028187223889946 1.0389258398154513 9 89 219
2.480653532092506 0.9892056312825431 1.0380047300824473 9 89 228
2.4872214354333506 0.8654268983851399 1.0331281589338035 9 89 252
2.4941861641557015 0.7943668572487201 1.0302060932403885 9 89 265
2.484442920869309 1.0756489592783107 1.0366524625679068 9 90 210
2.4850703607552824 0.8458755990467064 1.0278575717022176 9 90 256
2.4931346825363043 1.0146726315026777 1.0294769532996364 9 91 222
2.498744145775394 0.9579584118769693 1.0270357039884015 9 91 233
2.473359624521008 0.830414549475476 1.0231097162415175 9 91 260
2.4780203634539344 0.8073817336014639 1.0220202031131418 9 91 264
2.4285437353923838 0.7458086230361856 1.0216569918121854 9 91 280
2.4876346429726146 1.0847938829465644 1.027993263763114 9 92 208
2.468974284074392 1.062551792136905 1.0279028710481386 9 92 214
2.463672158401031 0.7665450126098272 1.0163533806252607 9 92 273
2.4626018915386605 0.8922400662552563 1.0168314803718044 9 93 249
2.4675284411968845 0.8177861722222644 1.0135928853398137 9 93 263
2.4842007240915835 0.7627049889768591 1.0059164146357773 9 94 272
2.4946993950175997 1.0641211053750181 1.0134338361983333 9 95 212
2.492333679229081 0.9666271941901492 1.0094298506229404 9 95 232
2.4818494500698445 0.9254730849765576 1.0081837281859578 9 95 241
2.456336058647659 0.8953800564638055 1.0081079813615343 9 95 249
2.4589449329264657 0.8377043495218846 1.0055516527620751 9 95 260
2.4720867092830674 0.709239866594455 0.9995146202884033 9 95 283
2.4882322441521456 1.023266082209893 1.0029838687549595 9 97 221
2.4924067969066614 0.9621746857515117 1.000099248759318 9 97 233
2.4572030621551755 0.9006140909248852 0.9991490366371705 9 97 248
2.483437864326692 0.7475339566729382 0.9911377487537604 9 97 275
2.460942564366887 0.847907479394779 0.9920287260361857 9 98 258
2.4571161271718016 0.8287877013975682 0.9913706693807641 9 98 262
2.475520567187975 1.0693327737209093 0.9697789535052596 9 105 213
2.504756669919654 1.0048764670634152 0.9647495195724263 9 105 224
2.492913955009829 1.0489510002305915 0.9631469536192758 9 106 216
2.5045231028016683 1.0300568727306982 0.9614550872831998 9 106 219
2.4787955303720572 0.9455014025619228 0.9495047986605027 9 108 238
2.4788739439298038 0.9353349821960726 0.9489628964614593 9 108 240
2.4405579432088693 0.8951218798739031 0.9493431636780365 9 108 251
2.4612085851969474 0.7601901425100925 0.9408696070144925 9 108 275
2.487585774064285 1.0420504409312585 0.9494718185076145 9 109 218
2.493948919546951 0.985207720003481 0.9459990219303349 9 109 229
2.4374554418634147 0.845223996114512 0.9422653451790021 9 109 261
2.4551198920155257 0.7793077137826454 0.9375513987561468 9 109 272
2.4922249571290123 1.0942040356722018 0.9474336429079525 9 110 207
2.468192182716237 0.970664778056511 0.9377506247471339 9 111 234
2.44629926322343 0.9138630035384256 0.936136326708208 9 111 247
2.4546443979114048 0.7905988460051212 0.9287429993270078 9 111 270
2.499682476063815 1.0923743948563422 0.9377370692304113 9 112 207
2.4789265463939576 1.070474055240962 0.9379842361380317 9 112 213
2.5100817447009387 1.0200731530161966 0.9329425965582865 9 112 221
2.452538569438885 0.8392445347696131 0.926890997462311 9 112 261
2.486660659054018 1.0436850685567762 0.9313593345268468 9 113 218
2.4810840955881455 0.9916097588209931 0.9241878733586897 9 114 229
2.4695383611984263 0.9508760787509483 0.9226901016272893 9 114 238
2.4375021617602934 0.8722561108983711 0.9205206224328805 9 114 256
2.468197062548385 0.790343532452467 0.9135206588476957 9 114 269
2.492072549092643 1.0814805647896326 0.9240052487489726 9 115 210
2.4541032617523406 0.8549256353690007 0.9136010570928652 9 115 258
2.4685054916298768 0.8328846366087217 0.911224100839407 9 115 261
2.4633854538161106 0.776705146011565 0.9083202034661205 9 115 272
2.465952867340646 0.9729943071449754 0.9150065329292609 9 116 234
2.4704062117019236 0.9561547429955328 0.9136641398859134 9 116 237
2.4710169562601987 0.9305440374242857 0.9120961838393244 9 116 242
2.457732432644579 0.8847384479557368 0.9103968872158846 9 116 252
2.4608122600859357 0.7403103787979435 0.9015826211268507 9 116 279
2.4880134630477686 1.0845915629640723 0.9016715354128559 9 120 210
2.483063001155447 1.0472630235579632 0.8997400399452768 9 120 218
2.491475179724132 1.0198189941225522 0.8926862780508832 9 121 223
2.4625359655118237 0.7890843211163057 0.8804603773969456 9 121 270
2.46496312607123 0.8883871339832212 0.88185247340691 9 122 251
2.4717384609027544 0.8224927884055182 0.8770311854698118 9 122 263
2.4381808026319356 0.7576730619704313 0.8757303340121947 9 122 278
2.466095369705563 1.0834800371663758 0.8897562610116364 9 123 212
2.479016860483495 1.0692697260440112 0.8877052269775468 9 123 214
2.4486972089166934 0.991712206437438 0.8852869516462781 9 123 232
2.458124345640807 0.9427643481653896 0.8812750776029636 9 123 241
2.49058038554209 1.0310464215110842 0.879565344785357 9 124 221
2.472502828262768 1.017827980513027 0.8802920293956478 9 124 225
2.452657759807139 0.9299879981910157 0.8762474644941484 9 124 244
2.4660513714057757 0.8307852072472963 0.8685114783556109 9 124 262
2.4908144547910376 1.0609097765426947 0.8768950654687317 9 125 215
2.4595091910530136 0.9784277292510233 0.8695456089313909 9 126 234
2.4453931618856033 0.8924951397745629 0.8650177878910931 9 126 252
2.4834866984313817 1.0885558680523453 0.8702128090725808 9 127 210
2.4438052031188087 0.7353154773300659 0.8205712348644157 9 133 282
2.398864364617974 0.4750564126924539 0.7808218390178673 9 138 332
1.0751805064334847 0.1871732388771501 0.8994456180645722 9 139 606
1.1322717594712575 0.2162726569726532 0.8852227049694346 9 142 585
1.1066547463587286 0.22006586416541118 0.8884763276147398 9 142 591
1.0984057804882632 0.21576378181800138 0.8890755648019419 9 142 594
1.0271287153544362 0.20854720303660645 0.8966856348387708 9 142 615
1.0152755312270823 0.1999668660473506 0.8973519542577256 9 142 620
1.3517771797906977 0.22180777102025218 0.8567024830885349 9 143 532
1.085501702238024 0.217532668684008 0.8873661893007609 9 143 597
0.9946909542966558 0.20442486497866552 0.89686798078759 9 143 625
1.0192491569665152 0.21293778757591442 0.8882113686107471 9 145 616
1.3605584584174482 0.24812389832466808 0.8466556536309112 9 146 525
1.348717606891302 0.24560080476225776 0.8478743058036211 9 146 528
1.0896460671947321 0.21480886052137826 0.8766029976455305 9 146 596
1.0266103198740901 0.21165510017695133 0.8839601122866697 9 146 614
1.328565862631018 0.2573328411746594 0.8439404079747083 9 148 530
1.4088645409147234 0.24067072731189088 0.828728454665413 9 149 516
2.274870898629729 0.7836533667545786 0.7627743924064742 9 150 289
1.4389589473506494 0.2556951109804233 0.8185424694461807 9 151 507
1.4223713911520854 0.262958147684887 0.8213183183574562 9 151 509
2.2457654617476597 0.8037677427469967 0.754417386561234 9 153 288
1.4663577684088849 0.25804331986754514 0.8074169657482437 9 153 501
1.3871065778259277 0.2523060438383684 0.8173134368673763 9 153 518
1.4881112650335084 0.2610971774168942 0.7929899482016264 9 156 496
1.4157111623066743 0.267478280695685 0.7995856862902448 9 157 509
1.6473653684727243 0.27168817695745817 0.7471325423360649 9 162 465
1.525428759725677 0.26820075724456194 0.7523642532815835 9 165 487
1.6597909857259008 0.26974515277616673 0.7281718804583761 9 166 463
1.6387256353500286 0.2728887500575543 0.7316754008740575 9 166 466
1.6138867488221498 0.2739848472811326 0.7313611947101377 9 167 470
1.801777236411619 0.25963707122571833 0.6967238831437701 9 168 442
1.7101628725076556 0.2731617628678378 0.7122491765566963 9 168 454
1.5900775520238704 0.26884937025209754 0.7303159409164833 9 168 475
1.4655984436802951 0.27923702003948336 0.7466259222319677 9 169 496
1.7293433086738792 0.27209501555742666 0.7004439661014505 9 170 451
1.687759452985649 0.25323616930152126 0.7049954121544029 9 170 461
1.7930305434913123 0.2665076752953053 0.685363604744162 9 171 442
1.7197966805928528 0.26870174356213505 0.6928544909573753 9 172 453
2.000783296143456 0.2628374641555804 0.6423758390122063 9 173 413
1.9602183669064863 0.27156468942044865 0.6498827944673262 9 173 417
1.6880484597923662 0.2576676260931039 0.6924273396148466 9 173 460
1.5585839151933047 0.2702628417199042 0.7147385375375036 9 173 480
1.8872029683817964 0.28411378842557733 0.658431954651548 9 174 425
1.85979974404809 0.26605129694099383 0.6609424870051538 9 174 432
1.7895866514300498 0.26867256898297187 0.6726982922662583 9 174 442
1.6528039423498995 0.27890137289363004 0.6918866490490511 9 175 462
1.7887474769121097 0.27465148653297566 0.6645140055869494 9 176 441
1.7433224995797645 0.2747522445330248 0.6720859160168338 9 176 448
1.5952243987694472 0.26630977548540047 0.6958022310430039 9 176 474
1.5171281004532853 0.2609763253398709 0.70821100221976 9 176 489
1.6066791257876236 0.28292992482802615 0.6915288263742136 9 177 469
1.5455703063482242 0.2873589915813821 0.7022881474975531 9 177 479
1.440123930229099 0.2699003084897056 0.7180551236692571 9 177 502
1.3662829507969367 0.26398869754306764 0.7298003001208415 9 177 518
2.0044465208847355 0.2828414200393672 0.6150463983042171 9 179 409
1.760767206461729 0.26963971426284905 0.6552386606485092 9 179 446
1.5194456942215708 0.2685022103226249 0.6963940220710928 9 179 487
1.504163382371262 0.26758558089323414 0.6989046286707024 9 179 490
1.2966002988641256 0.2679102463227485 0.7344503633146475 9 179 532
1.9486382116223644 0.2854020766371128 0.6201382684622253 9 180 416
1.7173110992787968 0.28564281967259375 0.6600979670282826 9 180 450
1.6480765548306715 0.28163606984058953 0.6715920213941202 9 180 462
1.59031142689844 0.26395580121068285 0.6795453621568566 9 180 475
1.4412219031953177 0.28342523933475383 0.7035372423421419 9 181 499
1.527478224112711 0.27017831609043985 0.6828735962015108 9 182 485
1.3756716280652488 0.278230259478093 0.710482579593183 9 182 513
1.8819152385730127 0.2863095324819587 0.6178050266058149 9 183 425
1.5005891205794026 0.2751743079152291 0.6841030062478747 9 183 489
1.4571632575417026 0.2764920935937174 0.6919551529553213 9 183 497
1.8223030733641705 0.2838788140908348 0.6235175750663311 9 184 434
1.8110198610951085 0.2819668410062919 0.6253102721498515 9 184 436
1.7120904574622617 0.2891370323792497 0.6438453451064484 9 184 450
1.6248665429047922 0.29103873788779877 0.6596670813880953 9 184 464
1.3438196083193814 0.28068100672351126 0.7087065147000606 9 184 519
1.660692280646139 0.285026984881136 0.6482292359880133 9 185 459
1.600262705331983 0.28620921093168095 0.6592697909153818 9 185 469
1.7134949096398893 0.2929575732670031 0.6352416078848486 9 186 449
1.4138948811707868 0.2832603144881145 0.6885916226616393 9 186 504
1.4771601164172057 0.27569989611206847 0.6721226763433709 9 187 493
1.8138712986449925 0.29007730638622586 0.6074958100384075 9 188 434
1.43886116136126 0.27681266810387095 0.6712821832819398 9 189 500
1.4209886162899987 0.27363044687635574 0.6702463537994383 9 190 504
1.380900348351072 0.29036124920167183 0.6798489348585337 9 190 509
1.6087578712985864 0.29197226278745037 0.6243619906580744 9 193 466
1.4695714104291797 0.28107153902251136 0.64983801643684 9 193 493
1.6686384437240909 0.27980657018298283 0.6025116212557324 9 195 458
1.4893194492876953 0.27573894007183264 0.6330298561855467 9 196 490
1.465822851699688 0.2828267085631424 0.630428570448704 9 198 493
1.502552835784679 0.29177974325948597 0.5951901601746896 9 205 484
0.9273740774245944 0.26076745084191844 0.575390613822135 9 246 619
0.9902808314837672 0.259920547983544 0.5541869825844701 9 247 601
0.9813986208579872 0.2617492976784068 0.5534741569824022 9 248 603
0.9457685100683262 0.26253071293731867 0.5636543053904404 9 248 613
0.9973080241361982 0.26886196416012487 0.543149721507113 9 250 597
0.9671308788219484 0.2657414396332456 0.551198630824053 9 250 606
0.9289155883871256 0.26806466381089544 0.5487258899367029 9 254 616
0.9013448636113419 0.26367515833079147 0.5559728112238589 9 254 625
1.0320000813143957 0.2677360224089669 0.5113146320671393 9 256 587
0.9779469917811727 0.2607620713178287 0.5259881810354214 9 256 603
0.8904519000467581 0.25811532754095556 0.5513325234376788 9 256 629
1.0888993264753586 0.2685342882657191 0.49093018747486994 9 257 572
2.049986171353185 1.5768350823330746 0.44380544555837476 9 258 135
1.145362610381931 0.2629798947195372 0.46929882439086845 9 258 559
1.070723720894913 0.2712396340910974 0.49312450550155473 9 258 576
1.0460660733251594 0.26234101261306053 0.49883058530237845 9 258 584
1.020006748171853 0.27210527911993765 0.504808841713386 9 259 589
1.007910592443951 0.26805302785899654 0.5076828296989493 9 259 593
0.939821832178104 0.26298895555748203 0.5271817135997586 9 259 613
0.9131659954396769 0.2619768068611683 0.5349968795112229 9 259 621
1.99368806466418 1.5515098505385851 0.4478373665695632 9 260 145
1.0763646305780379 0.26668354708816633 0.4794144009484499 9 261 575
1.9969713633645996 1.5889214154822533 0.441846423710881 9 263 135
1.97234061025322 1.5534327653294637 0.44263017494220824 9 263 146
1.1388304738517618 0.2683939421875918 0.4530878754417472 9 263 559
1.0929850633400378 0.26974283340351857 0.46742284990583594 9 263 570
1.0627969528764627 0.25676425370705624 0.47421312595913157 9 263 580
0.9492051950476728 0.27235041040838404 0.5120700355205785 9 263 608
0.9246932404210702 0.2674020528773222 0.5186513979251228 9 263 616
0.9327756035510129 0.2646054972447942 0.5121343948635243 9 264 614
0.8995560690228985 0.2673475193267223 0.5160219813991913 9 266 623
1.8945175269463514 1.5495872006607319 0.4502220873207228 9 267 152
1.8559479846884557 1.493490052652657 0.4513931661081174 9 267 170
1.0113190450493623 0.262389636974659 0.47652447717507074 9 267 592
0.9509538135546078 0.26086292624236185 0.4951729008363288 9 267 609
0.9329365345215463 0.2728612338920404 0.5031663938810564 9 267 612
1.8694868418554424 1.5231944489472435 0.44904727847691883 9 268 161
0.9001036039626442 0.2647346786301199 0.5084262229745167 9 268 623
1.8573700982503651 1.5155877961360025 0.4475031559215181 9 269 164
1.0061252400583849 0.2575264584228385 0.469905241314848 9 269 594
0.8872522968007033 0.2631555567373347 0.5087277311563865 9 269 627
0.8667142608013403 0.2536922004348354 0.5133807392816734 9 269 635
0.9359839634330958 0.2710517445833913 0.49129742243093655 9 270 611
1.8180418383706414 1.5365261620557602 0.45270671692651254 9 272 161
0.9099620230364978 0.26168071163996953 0.49075469411656236 9 272 620
0.8841905578571541 0.2656555520343522 0.49985743928938486 9 272 627
1.8005107885724112 1.4986364261975162 0.4469739961264688 9 273 173
0.9583963992595828 0.2656263586115948 0.4687648691007389 9 274 605
0.9421220208235974 0.26354455728274195 0.4736474188464732 9 274 610
0.8795557716420668 0.259749542608799 0.4898092420272848 9 275 629
0.9081744607112157 0.2650111649404787 0.47097234598572 9 278 619
0.8803461528957661 0.25018462218830484 0.47718121178941386 9 278 630
0.8611157641472493 0.25425264288476557 0.48096867214671835 9 279 635
0.878911932290924 0.24992309879443364 0.46714580630026215 9 281 630
0.8888761691175526 0.27122525365504657 0.46473354056380245 9 282 623
0.8793237122159006 1.4614767419783878 0.7059928619157907 9 287 300
0.7948885010259563 1.4572020954612102 0.7323159110098564 9 288 321
1.2830624233913173 0.666011073603495 0.07985806402118478 9 366 443
1.3647071149398091 0.6616943310570369 0.029699139342407532 9 368 429
1.3494800133089082 0.660042954883717 0.0367608670126196 9 368 432
1.3114967490664977 0.6239500903978419 0.04480968335927038 9 368 446
1.1865390580560873 0.6890967676866673 0.12630621863540048 9 368 457
1.0008508304560868 0.6872922085643913 0.21790629605296474 9 368 499
0.9874289049175045 0.6887977474637856 0.22501681230312398 9 368 502
0.9669903976280847 0.6940895104632645 0.23674183007180016 9 368 506
1.028067762435455 0.6887188865339908 0.20115638457754725 9 369 492
0.7945116142800659 0.6868145291151504 0.31692431767471996 9 369 556
1.2224616613232182 0.6778408334811656 0.09699705087915822 9 370 452
1.315450452037083 0.6396475902012242 0.034701973223063565 9 371 442
0.9530767828745641 0.6862426238805477 0.23069373251019987 9 371 511
0.8387931817479242 0.6840672128056444 0.2874016280946926 9 371 543
1.3637528289269654 0.7015298362623559 0.02485858610931868 9 372 421
1.3509205445143513 0.6577332020733091 0.01802861955338253 9 372 432
1.3013853595628342 0.6423017294427038 0.03830383384442637 9 372 444
1.1687312048289737 0.6861933075720907 0.11847082388646824 9 372 461
0.9142596512373657 0.6914802851691337 0.2482998526898772 9 372 520
0.8005605080181981 0.6902087665963172 0.3052049501060603 9 372 553
1.1196219502226703 0.6878469416269262 0.13985191768320426 9 373 471
0.7245533490534335 0.6782341069153575 0.3367518849740532 9 373 580
1.337847631509017 0.7035891151770151 0.029993981949883564 9 374 425
1.3084016125754845 0.650319079840693 0.02865551482404083 9 374 441
1.071148216565804 0.6958426679719625 0.16303781367615322 9 374 480
1.0579807077199912 0.6959259783360641 0.1697488919714054 9 374 483
0.9837157800598666 0.6904937703074399 0.20579469016571217 9 374 502
0.951251446014663 0.6870525321443921 0.22122568112746466 9 374 511
1.1167888844229639 0.6853206334033384 0.13277411405911943 9 375 472
1.0427769300950096 0.6980217631315999 0.17439318717964825 9 375 486
0.8369058895949943 0.6844473466064862 0.2751524104114531 9 375 543
1.3530077902648134 0.7294180089422229 0.02162980171176887 9 376 417
1.325708004010905 0.7136379105521273 0.030736077188542765 9 376 425
1.3258089813339278 0.6889575188668382 0.02308300818561282 9 376 430
1.2926073600527874 0.629122632922237 0.021640031489344347 9 376 448
1.273275526630218 0.6272760537825957 0.03096137634504892 9 376 452
0.8639746616839687 0.6892052852426542 0.25943170068786725 9 376 534
0.8600910173665985 0.6806383872724913 0.2587800037353156 9 376 537
0.8130388425413112 0.6889092691797896 0.28539906787523917 9 376 549
0.6998423436590934 0.6738402757391659 0.33866873511302886 9 376 589
1.1855718970971154 0.6678521982730707 0.08429288987060013 9 377 461
1.1058837282135994 0.6864271421642827 0.13095661541301018 9 377 474
0.7971176945158881 0.6876942186405777 0.28990869536698305 9 377 554
0.7902913641929029 0.6881780834436542 0.29356377896613717 9 377 556
0.7750012389151753 0.6827335500637468 0.2997328035226511 9 377 562
1.3138989639590437 0.6940540276322009 0.022233381661910245 9 378 431
1.0487560735976666 0.6950246549609451 0.1592064933210673 9 378 485
1.0137742961586893 0.6870534506541173 0.17476567037213986 9 378 495
0.7605118478117001 0.6804252603297711 0.3032576179546327 9 378 567
1.3518022393401878 0.773277462405439 0.023021671524247722 9 379 408
1.335552796712808 0.7289116421169761 0.017617432247739373 9 379 420
1.3085963674507008 0.6982547047104379 0.01776676227605023 9 380 431
0.7666158914070256 0.6839440266898145 0.2947704766206216 9 380 564
1.2236385611323788 0.6387317780652766 0.039132458606881304 9 381 459
0.9098455364675793 0.6971765959022045 0.221033554064741 9 381 519
0.8038156263391172 0.6852405032769386 0.27256326413284737 9 381 552
0.7314491779850448 0.680836343493705 0.3089061542750213 9 381 576
1.3359650496499413 0.790153551016544 0.01961859315507386 9 383 407
1.2700242134662287 0.6978274537981961 0.02509632467094436 9 383 438
1.0732364303838322 0.6949403864669756 0.12753393993295425 9 383 479
1.061329956209247 0.6935682649016228 0.1333537312435118 9 383 482
0.959642877373903 0.6960901808334141 0.1875542007819151 9 383 506
0.9504530762908157 0.6977005543357793 0.19288900774240458 9 383 508
1.3354443331050576 0.8463004719567571 0.033459348262348865 9 384 395
1.2315727751585326 0.6399230380855243 0.02281681348618214 9 384 457
0.9113749037389387 0.6984411547197227 0.2101462627845152 9 384 518
0.8819772773190617 0.6894415321986864 0.22279089023285847 9 384 528
1.2957865507203128 0.7756670594052182 0.027813746532781902 9 385 417
1.2547333091035018 0.6720909884251951 0.016597717129791967 9 385 446
1.1862084389675203 0.6299624850912164 0.03945648159689452 9 385 468
0.9726869598190828 0.6892304687379598 0.1712741544834353 9 385 504
0.8639919188132237 0.6845782784040995 0.22730357580995464 9 385 534
0.831583144738818 0.686180768255992 0.24496011865126754 9 385 543
0.8220353599572237 0.6853780516755277 0.24975643799342828 9 385 546
0.7881152415331234 0.6861077251281369 0.264654060547155 9 386 556
1.3221073705786015 0.8561792504081478 0.031215767012042317 9 387 395
1.2552620349270593 0.7004834716488728 0.016985320243802615 9 387 440
1.2072346480647904 0.6429549465529929 0.024161259892472753 9 387 461
0.9818913173524617 0.6916114299300333 0.15984969882922995 9 387 501
0.943233019921264 0.6998533282726773 0.18309373325872458 9 387 509
0.7210597547518907 0.6746822703093012 0.2934506130155725 9 387 580
1.3059155699844969 0.808943789845598 0.020553684570157937 9 388 408
1.281590786865813 0.7681697686014681 0.020463532377115623 9 388 421
1.0013018204449329 0.6922721482759548 0.1460157876682986 9 388 496
1.2840061368326905 0.8081089909456878 0.027877057696281238 9 389 412
1.2727010323780747 0.7566295534489802 0.017346167354264752 9 389 425
1.2709724946852001 0.7342286573050294 0.011050534774283971 9 389 430
1.1576683994377654 0.6329862475080037 0.03923740552311372 9 389 473
1.1031259551032293 0.6609248375642842 0.07753167784633397 9 389 479
1.1929806754906596 0.6511567118969324 0.022005705446883628 9 390 462
1.0280098719691513 0.6989484864575144 0.12637078219287634 9 390 488
0.9669715604242617 0.6890442402713668 0.15605822858942808 9 390 505
0.7431468921669311 0.684976157791072 0.2753568548925234 9 390 570
1.3114702403243146 0.8728990365654268 0.025789056669666355 9 391 393
1.2651537403488848 0.8095009871514629 0.030252504856771445 9 391 415
1.2099154570607533 0.6882726261345089 0.020762492114238196 9 391 451
0.8258617486868336 0.6905836434102564 0.22922781941950587 9 391 543
0.7201726784928181 0.6869981754077332 0.285225317395563 9 391 577
1.2892460237723002 0.8538364379933716 0.02751617355479752 9 392 401
1.2686095711657235 0.847643590213478 0.0367000744239272 9 392 406
1.183792484587351 0.64481181148427 0.016647878229302915 9 392 465
0.9722860421130441 0.700502604473604 0.14960405834644774 9 392 501
0.929956523104696 0.6950617925683167 0.1708083877505686 9 392 513
1.3065735528039295 0.8898573832320191 0.025746564811788275 9 393 390
0.9229209905462388 0.6846799978026648 0.1676682647736074 9 393 517
0.893855379567734 0.6883326774264829 0.18469723057644472 9 393 524
1.1001160948476578 0.6328973742106203 0.050213853460254754 9 394 485
1.0554436718310123 0.6671853529256351 0.08588912110782188 9 394 488
0.849045047234672 0.6856279452789744 0.20479134254826503 9 394 537
0.7882968277985314 0.6812658955101671 0.23657501059921449 9 394 556
0.7152635411682823 0.6835226155385223 0.277247346763705 9 394 579
0.6949606909227726 0.6831460248758356 0.2882246321865418 9 394 586
1.1678774191674108 0.6499711076092396 0.014658198439354342 9 395 467
1.1410387263527755 0.6381440341669995 0.02549175911762802 9 395 475
1.2292418829517213 0.7928134054159186 0.023940727072784496 9 396 425
1.2272697032777424 0.7805937921008232 0.020989894813198573 9 396 428
1.2165799850991528 0.7478667537334416 0.016065007318950775 9 396 437
0.9788336593058751 0.700506793198306 0.1313500286062057 9 396 499
0.7016010567080412 0.6805792767367178 0.2774435996137685 9 396 584
1.2543218479815605 0.8265827006253195 0.017195580905493557 9 397 413
1.2013165244772859 0.7426585254155524 0.01867078218307361 9 397 441
1.199145669986764 0.7160713457229091 0.011056986409337721 9 397 447
1.1779569542650046 0.6930437930562889 0.015134355066013239 9 397 456
1.1609239805989697 0.6807898368483354 0.020486286508023976 9 397 462
1.1626087121415358 0.6644513722793313 0.014138951768679853 9 397 465
0.7787211183421814 0.6838914741576778 0.23275758756089227 9 397 558
0.7661249752777446 0.6881619412348967 0.24113511806069188 9 397 561
0.7563552778994262 0.6886092399312425 0.24668309839421432 9 397 564
1.241144046120858 0.814490949631888 0.016388593959757225 9 398 418
1.218761581007398 0.7876154161823841 0.01986405578960193 9 398 428
1.1156419418581949 0.6440843330637265 0.029319485715207705 9 398 479
0.7400543498321078 0.684627716523452 0.25113738760054294 9 398 570
0.5994199580984962 0.6804893964460448 0.3277682647876099 9 398 621
0.5717530513780364 0.6759106046681076 0.34159155206008596 9 398 633
1.2039217585734048 0.7866072220999909 0.023715435678402397 9 399 431
1.1927232054538657 0.7547672476072986 0.019322120512149432 9 399 440
1.0895636038593408 0.6374090698029069 0.03757728302627639 9 399 486
1.0238280066853234 0.6572867223700478 0.08080474652212666 9 399 497
1.2364465853375828 0.8543977582532123 0.024199112193204808 9 400 410
1.1558058474096047 0.6993821995921379 0.017333956605863454 9 400 459
1.1109528007040803 0.6384474894818502 0.021984008340043104 9 400 481
0.794604230941004 0.6872367065822313 0.21505400836684907 9 400 552
0.5781639606992011 0.67624025082818 0.3322870050129242 9 400 630
1.2531101238002675 0.9031857760917608 0.027209608800300877 9 401 396
1.230261004621187 0.885965305201712 0.0342330630833203 9 401 404
0.9592952250041784 0.6884543747885523 0.11977685470239874 9 401 506
1.1979636846822113 0.8141439890396258 0.024189144519525696 9 402 426
1.194323761353315 0.7990399313471463 0.021144263924311346 9 402 430
1.1764563824736656 0.7642995084745559 0.019483253917282006 9 402 441
1.1433037186066008 0.7063256110414835 0.01858840388758054 9 402 460
1.102946585704687 0.6462403583998677 0.021035163708690963 9 402 481
0.9299330245853188 0.6899522712755324 0.12949062338279504 9 403 513
0.9220787122770344 0.6901916417919605 0.13400643565267734 9 403 515
0.8543534608720298 0.692287790939853 0.17295572826606698 9 403 533
0.8333917551974082 0.6923143238506331 0.18480043782227962 9 403 539
0.8076851299079018 0.6857900803207007 0.1971080062180901 9 403 548
0.6685239379722011 0.6782531763967588 0.273133494107193 9 403 595
0.6409979872902793 0.6825218630393453 0.2901198403746985 9 403 604
1.13321990066834 0.715692729134275 0.019407088636521408 9 404 460
1.1245311363368056 0.6812961408793292 0.012653901203593776 9 404 469
1.037883066107308 0.6292800270039436 0.04409384100337377 9 404 499
0.7537226394664853 0.6927407304172344 0.22665165731723835 9 404 563
1.2222442457234692 0.9049120660244856 0.02922113331013576 9 405 401
1.217774046584226 0.8953503310340056 0.02850620229416556 9 405 404
1.0610273222481115 0.6369499755911665 0.02962356445010572 9 405 492
0.8926260948661779 0.6931399059981214 0.1445212485259011 9 405 522
1.178887663346127 0.7980870769232333 0.013473331753587559 9 406 433
1.1167263275681685 0.717282896169867 0.021329497829653432 9 406 463
1.0501633227141782 0.6340125058004547 0.03085457548609405 9 406 495
0.8523690280695401 0.6978703698033528 0.1655472549491468 9 406 532
0.8133856143885501 0.6854947572688399 0.1835631892402707 9 406 546
0.7856344257573671 0.6962479840140061 0.2030740441520249 9 406 552
0.7763188189315426 0.6956498987886797 0.2081854766686475 9 406 555
0.6329297566849319 0.6802886653413225 0.28475880771737294 9 406 607
1.1238490179410698 0.761484344652156 0.02841868618373855 9 407 452
1.1187308268319913 0.7525341894673303 0.02828053699957822 9 407 455
1.0953494586888628 0.6959648175157684 0.022271844163102905 9 407 472
1.091394497666636 0.6663961491774528 0.014397410639420238 9 407 479
0.6121554518972077 0.6786980881863518 0.29304848362516656 9 407 615
0.5973849764299983 0.6772640629621702 0.3010149541040117 9 407 621
1.009904386613773 0.6305101872753582 0.044877745115564416 9 408 505
0.6556079153524257 0.6866345767924831 0.2677840562160776 9 408 597
1.1573825830398676 0.8121523950755287 0.01865238871302921 9 409 434
1.0713699556910794 0.677406083186161 0.02173783276859842 9 409 481
1.0523816469192822 0.6546434746455416 0.024829952261084642 9 409 490
0.5732034029547535 0.6781955169326817 0.3092833694663495 9 409 630
1.2013561336649061 0.9207298314653516 0.026835950629766625 9 410 401
1.165148985242684 0.8852436956786134 0.035497344340425396 9 410 416
0.8503941531195612 0.6983506697180963 0.15290667010000925 9 410 532
1.1628820783507214 0.8694511899987702 0.027413247002624264 9 411 420
0.9659638161479553 0.6328729165966187 0.05954927521962272 9 411 515
0.8847605999561348 0.6907722914426349 0.12682336670279248 9 411 524
1.1860021729603376 0.9154419068061845 0.026045163659526915 9 412 405
1.0388294909335372 0.6441842424500217 0.017227211764880845 9 412 495
0.8518883178076712 0.6907764050898806 0.14240373542681883 9 412 533
0.6635675898085533 0.6845778278106525 0.2499781788876163 9 412 594
0.5576340061394659 0.6817370662971123 0.3107158649718704 9 412 635
1.1483946242010654 0.8639146423025048 0.02608099641374939 9 413 424
1.131282857500905 0.8391997885767479 0.02744109270854178 9 413 433
1.0854292408617763 0.7277655630097521 0.015271651573942613 9 413 467
0.7641112937332206 0.6815070529232012 0.1869727911074952 9 413 561
0.7563409998715207 0.68354440018881 0.1922289778709403 9 413 563
0.71996753474249 0.6824387748384972 0.21311073171047423 9 413 575
1.1609912194937837 0.8966941383912588 0.026276917948996115 9 414 414
0.6938389446299872 0.6853229047476157 0.2261928409038576 9 414 583
1.0331623191984958 0.6734975876128861 0.019035286363708437 9 415 490
0.6657178257243614 0.688133384759642 0.24053066503224274 9 415 592
0.6311139242857766 0.6813755854904429 0.25852492125309157 9 415 606
1.1407855848714639 0.8655032130837279 0.019370167809812155 9 416 425
1.0927463216928492 0.7797641825217485 0.01746124935877935 9 416 454
1.0719770035061367 0.7590414625270496 0.022410700118274285 9 416 463
1.0563123734576574 0.7333816071482915 0.022600062923713082 9 416 472
0.9662738934263084 0.6348514694498593 0.04098539281459335 9 416 514
0.6197916085775904 0.677075525463922 0.2606048554128888 9 416 611
0.6529405190649114 0.684714364943741 0.24058476867121037 9 417 597
1.0460462850175465 0.7247451990763456 0.01783751022440394 9 418 476
0.9379505062364535 0.6395668581061551 0.0518494086803698 9 418 520
0.7380954752079754 0.6933580137426312 0.18986470376606868 9 418 566
0.5724064791616722 0.677085143528743 0.28264029585879724 9 418 629
0.5629623483385355 0.6761475630401821 0.2879248544919413 9 418 633
1.0468986986491342 0.7421322476765577 0.0196364772315345 9 419 472
1.0293997793760346 0.7046131150763899 0.016695673165653346 9 419 484
0.9768407869511628 0.6351898661508155 0.02329959767315226 9 419 511
0.5789849066382228 0.6780591741717794 0.2760740667683983 9 419 626
1.105252870377399 0.8565980015732566 0.021776164437491863 9 420 434
1.0063452625964964 0.6870960639837427 0.02034397747858785 9 420 493
0.9242853273684637 0.6265745268315717 0.047829575777525335 9 420 526
0.9142133158421122 0.6297056644033829 0.05498283151742944 9 420 528
1.077835256641345 0.8331554975961031 0.025963084288936678 9 421 445
1.074331214666443 0.8097517223107165 0.01966447506840474 9 421 451
0.9592098760173184 0.6360814056449295 0.026483500440149133 9 421 515
1.0086705155785187 0.707330940080148 0.01849110179511748 9 422 488
0.931090245232975 0.6217365651214353 0.03443598399588477 9 422 525
0.7480336924435725 0.6900989585506623 0.16945184698006877 9 422 563
0.720123789434721 0.6810035691847389 0.1830052123354855 9 422 574
0.6502841847701877 0.6900927133402308 0.22839442217072237 9 422 596
0.6262968630750604 0.6844036784801981 0.24080961996790906 9 422 606
0.5998856958475577 0.6796555398723814 0.25502542436367215 9 422 617
1.108327383729974 0.9095166086087172 0.027412510921483113 9 423 421
0.68792556907515 0.6885549876798063 0.20191727258341274 9 423 583
0.663699433597198 0.6858769034226289 0.2156076623022859 9 423 592
0.5534684536893898 0.6760175078865562 0.27874086323240066 9 423 636
0.8515856509579176 0.6660527563499201 0.09116899071294515 9 424 537
0.8064452900260797 0.6940298487464538 0.12871916243407622 9 424 544
0.78968446380175 0.6940352680823623 0.13889682392984004 9 424 549
0.7812647422793157 0.6965558804814895 0.1449225494729114 9 424 551
0.7649119496779813 0.6921017494356825 0.15323538747182708 9 424 557
0.7289076137213923 0.6894956278351554 0.17414902708361613 9 424 569
0.585178799498084 0.6813003932291113 0.25843677671900744 9 424 622
1.0666633889791661 0.8338018031809915 0.01758230448276854 9 425 447
1.0582181005602014 0.8018000760670099 0.011085017284945264 9 425 456
0.7555024821918791 0.6912169276025519 0.15525907618103707 9 425 560
1.0792414218102095 0.9129323462507735 0.034930467868893755 9 426 426
1.0631344692186933 0.8761547739812112 0.03135287305975121 9 426 438
0.996546065556295 0.7097657835927196 0.011327094959701522 9 426 490
0.9719383835162179 0.666734453127769 0.010662889359429162 9 426 505
0.9330651042779294 0.6366471725381597 0.023442107067746853 9 426 521
0.9093203782442307 0.6278484265794526 0.03474402807164334 9 426 529
0.599786054978629 0.6859229261069104 0.24513091218958838 9 426 615
0.5760844897718593 0.682366345936249 0.25831964174908517 9 426 625
0.9872139293692557 0.7146971872349246 0.011176041482549248 9 428 491
0.7914052871594601 0.6939569703587758 0.12404435170345796 9 428 548
0.5662465199421509 0.6803779761001267 0.2576030202115216 9 428 629
1.0081508622249324 0.7791096813838003 0.018150815321405167 9 429 472
0.8886914254102096 0.6286606023321397 0.03646438246707806 9 429 534
0.8766591208604047 0.6299680064090745 0.04437475024882165 9 429 537
0.8062552484467093 0.6822006380919756 0.1070885507813848 9 429 546
0.7485670442881176 0.6896245956373077 0.14544022161524373 9 429 562
1.0185162346251124 0.8129776580554573 0.02044355294897393 9 430 462
0.6879318684350002 0.6884460069990281 0.1791885169410815 9 430 582
0.6000224561773697 0.6824697007651761 0.23143480580378006 9 430 615
0.9840198564475147 0.7632281556652323 0.019641307090073612 9 431 481
0.9587174395807425 0.7224158311034328 0.020231814542146065 9 431 496
0.9257655784177792 0.6768117769587254 0.023799550673618608 9 431 514
0.7580407022016917 0.6977166138210249 0.13579590006944797 9 431 557
0.6553411756820768 0.6846720478535486 0.19478771408388396 9 431 594
0.6448551467141996 0.6835048122331355 0.20087207918087358 9 431 598
1.0592758152357038 0.9208343784813768 0.0275631604025095 9 432 428
0.9469395956037938 0.6935063757805735 0.013040244708218074 9 432 505
0.7124635727447864 0.695295424414349 0.15992138525046373 9 432 572
0.995358805852486 0.795598699862369 0.017054101066323657 9 433 471
0.8271116101984629 0.6368577044774695 0.06307357353757514 9 433 549
0.7729629894970852 0.6844995717549374 0.114732777771692 9 433 555
0.5974924976629596 0.6846108708243666 0.22455826960725422 9 433 615
1.0391114071713763 0.8877975376238956 0.020329743757204533 9 434 440
1.0265328037809125 0.8435223467264741 0.01164884254955445 9 434 453
1.019743431363613 0.8282221018308564 0.010182236787200871 9 434 458
0.9700252586765732 0.777269432469605 0.022314800039894056 9 434 481
0.9664732868772581 0.7539204177532652 0.01580248994828226 9 434 487
0.6446076248992287 0.6863555889285711 0.19254995559491872 9 434 597
1.0523029850380679 0.9179737044879945 0.019590174027374285 9 435 430
0.8954324825431899 0.6505059863858829 0.017929115285844954 9 435 527
1.0329552365839394 0.9015122609015878 0.021851698723647894 9 436 438
0.8666591720757877 0.6295392995406242 0.024457137501388004 9 436 539
0.8231961027074397 0.620483293462951 0.0448649786789157 9 437 553
0.5588393349423982 0.6867726987257241 0.237512740112638 9 437 629
0.9192690674351054 0.7049150213314803 0.012123305344796886 9 438 509
0.6006260440606115 0.6844929917078812 0.20705174226323764 9 438 613
0.9868465840028651 0.8421304261092826 0.017438075611547976 9 439 462
0.9810586425251344 0.8217585157313159 0.01338299944481558 9 439 468
0.9270828615635194 0.7598317690153014 0.02427256807518763 9 439 495
0.8853756132518313 0.6612717918840536 0.013399575189283919 9 439 527
0.5507883143566578 0.6724295536921465 0.231154429771951 9 439 635
0.8558292991740952 0.6320428077261844 0.01742510437718603 9 440 541
0.8087141814453732 0.6196556488200453 0.04286288085060219 9 440 557
0.664082176229269 0.6826047702869014 0.15947748573300835 9 440 590
0.5849355725119086 0.6876218504568095 0.21206305833796102 9 440 618
1.0025809869101607 0.8820723250270104 0.015146033401278292 9 441 449
0.8293415552322061 0.6337317775383318 0.03136876827189661 9 441 548
0.7963787184062092 0.6221604097810847 0.04811231845403352 9 441 560
0.7537114285389505 0.6652844863441256 0.09202355562405184 9 441 564
0.7366608698539903 0.6764200446240489 0.10723741443012669 9 441 567
0.7053349980341597 0.6864808229084276 0.13120911416532288 9 441 575
0.6408526616569478 0.6829254403486047 0.17126609954498795 9 441 598
0.9817081767796194 0.8679778614362941 0.01945642256739255 9 442 457
0.9229831984139218 0.7857488038293745 0.02572794647480947 9 442 490
0.8482410521972661 0.6362897013883333 0.016508577336794783 9 442 542
0.8181107788776516 0.6245272829563666 0.03140861851814436 9 442 553
0.6064407998392072 0.6943372632558011 0.1946130314727642 9 442 608
0.9984241971073184 0.8940261912051237 0.014975243787821668 9 443 447
0.9058365537972097 0.7372312548080016 0.014445213893983455 9 443 505
0.6319000831807249 0.6825436861077354 0.17048340455047706 9 443 601
0.6247423139627182 0.6853647675471133 0.17619743489599116 9 443 603
0.9738746269587504 0.8751700753148037 0.019898269766889687 9 444 457
0.8395872784116898 0.6420454651178686 0.016931553922573173 9 444 543
0.6373875207710734 0.6818823886281424 0.16346930422568495 9 444 599
0.611157527841381 0.6939205421622865 0.18513295878590708 9 444 606
0.9515281998903586 0.8586419939310255 0.020674977052945742 9 446 466
0.8949200995435851 0.7579508163517894 0.018485812660202106 9 446 503
0.8898880734887902 0.7457493833361009 0.017027490511768217 9 446 507
0.7452115765321615 0.6509471150265087 0.07461935069950476 9 446 569
0.6669726621053266 0.6876330130806849 0.13995584319692278 9 446 587
0.5577938395085381 0.6906265794492115 0.2123923618616118 9 446 627
0.5406698266152319 0.6810938319344897 0.21986522506506634 9 446 636
0.9767074344695592 0.9011803389575375 0.017099868926321093 9 447 450
0.8198135750113263 0.6336206855463029 0.015516635707081505 9 447 550
0.6917008821793267 0.6849799708946627 0.11944716392341315 9 447 579
0.6102188855987083 0.6886871313790084 0.1742565369398339 9 447 607
0.9270858462159863 0.8231124096254487 0.015486403011768735 9 448 480
0.9064268901167576 0.7886849435787417 0.015593259276668991 9 448 493
0.8462480376340413 0.6834504853324193 0.013968923804036137 9 448 532
0.734879474641323 0.6365025696629063 0.06877672701145965 9 448 575
0.6016404358054699 0.6889183027242409 0.1768208590116661 9 448 610
0.8039315229060403 0.6402188178410002 0.02122744964690826 9 449 553
0.7927029363622183 0.6222811275504398 0.02159048290179655 9 449 560
0.7618497771110336 0.6329929165702965 0.04257153438400629 9 450 567
0.707879046146268 0.6624766208139152 0.08986382698360673 9 450 578
0.6348821809510553 0.6909275983390153 0.14933072504870637 9 450 597
0.5826156769254527 0.6792763602707619 0.179306392434591 9 450 619
0.8983906331754279 0.814258018721451 0.019992728376178937 9 451 489
0.8466679428295631 0.7187239441146909 0.016588415000250878 9 451 524
0.8262501075629956 0.6847149319531478 0.01670668260977748 9 451 537
0.8199001623704183 0.6600453701553901 0.011179833483229151 9 451 544
0.7998213950946167 0.6351078641219488 0.014654480902293265 9 451 555
0.7695796562897663 0.6298658923017957 0.029058997318702318 9 452 565
0.6146820090982258 0.6911414157590845 0.15640677907202116 9 452 604
0.8869480189311352 0.8132561947367225 0.019955445545604134 9 453 492
0.8031961692118791 0.6532513398689905 0.012313228192638803 9 453 550
0.6366134911735076 0.6904974347758941 0.13832050534203422 9 453 596
0.5397509420600185 0.6769208413387551 0.19759433989215303 9 453 636
0.9125676459783196 0.8582378540729079 0.017095930063405262 9 454 475
0.5833488397641001 0.6887307449268611 0.1700498032866189 9 454 616
0.8688190486792682 0.7937578626005015 0.017092609098826816 9 455 501
0.8637474200554878 0.7730492454544415 0.012223960539618828 9 455 507
0.8198293908690333 0.7097813917305558 0.016446289820103654 9 455 533
0.7418886627449189 0.6208465742355034 0.03326963467829058 9 455 575
0.6645571131900767 0.6852046426224745 0.11094649474683371 9 455 587
0.5552102786291172 0.6834293553886175 0.18370344821028184 9 455 628
0.724244886983453 0.6223851079760836 0.03869820414687197 9 457 580
0.6015000049943504 0.6915425782361124 0.14949691324533365 9 457 608
0.5936536695091132 0.6913360846973409 0.15471903402111575 9 457 611
0.8905161708770748 0.8592504354767219 0.01792409776728876 9 458 480
0.696072468519081 0.6323389316270349 0.05829412647422583 9 458 587
0.6213964805123745 0.689146443310914 0.13185518752974978 9 458 601
0.7598714545591292 0.644456906655335 0.016328033428441913 9 459 564
0.5602655404320191 0.6800800720152553 0.16655170989476709 9 459 626
0.8150611181257971 0.7546161269063612 0.019770855768057594 9 460 524
0.8015415222557176 0.7174858693532533 0.013932884230005937 9 460 536
0.7756499277278721 0.6688370145719023 0.011865678634475074 9 460 554
0.6429344578770587 0.67955629457716 0.10679971418042067 9 460 595
0.5475265253300625 0.6796405534934686 0.17195437373761746 9 460 631
0.8803959826121117 0.8521708979446858 0.01116652598290413 9 461 484
0.7346939252486071 0.6277130501364514 0.01957771897970062 9 461 575
0.6836173367060695 0.6260172839439382 0.05385931680022216 9 461 592
0.6103827307442509 0.6917311422036005 0.13074670835141733 9 461 604
0.8612660932514731 0.8475128697052923 0.018806320689097378 9 462 490
0.7838257718349911 0.6986217890614621 0.011216862583686371 9 462 545
0.7480854880583065 0.6647503380838042 0.02193810059973833 9 462 563
0.5343317166066096 0.6749051800720784 0.17289787979856275 9 462 637
0.5728114724110959 0.6865573844471844 0.14808017362913883 9 463 619
0.8220719789572317 0.8061880319642283 0.021785548700761215 9 464 510
