2.5172351360124443 1.1616672756458941 1.104480899108346 9 4 181
2.5065747091465114 1.146666604477599 1.1040419087858508 9 4 185
2.5148179559697272 1.1214500606272793 1.1060716479045858 9 4 190
2.5071443899496604 1.096243313446181 1.1064171985343971 9 4 196
2.5202449230223793 1.064237858376816 1.1092724506742642 9 4 202
2.4904244190017315 1.036608433357116 1.1073864467956187 9 4 210
2.4868080548309575 1.014338626811008 1.1080263426905363 9 4 215
2.4854326199201484 1.0006376868226554 1.1085098797233452 9 4 218
2.5004374683731543 0.9810620016464637 1.1109959035188983 9 4 221
2.5223245290900493 0.9539214892169574 1.1145572681635236 9 4 225
2.495093124048199 1.0633435294720919 1.1024850731133697 9 5 204
2.525498180094648 1.1326123636356382 1.0983694796631311 9 6 187
2.4707473319975484 1.0437638363993544 1.0966730337409003 9 6 210
2.5203438387065367 0.9599966977632235 1.105514308425206 9 6 224
2.505273151830753 0.9168142205217724 1.1058801264658717 9 6 234
2.5066855765208227 0.8165568652257518 1.1104844368879803 9 6 254
2.487135185627314 0.9913205889711254 1.0964791587220197 9 7 220
2.510639072620575 1.123943138061229 1.0889148053584572 9 8 190
2.4696017270623694 1.0400357121042498 1.088400313788773 9 8 211
2.4984671498119027 0.9051458320274939 1.0971059543538964 9 8 237
2.5086314735812065 1.064758140569101 1.0870603714151175 9 9 203
2.5100353610020045 1.0364055886118593 1.0841737809482936 9 10 209
2.5187347675916825 0.9518733745965716 1.0885404183246703 9 10 226
2.495889848659198 0.896746813880414 1.088596808437378 9 10 239
2.5057277435376637 1.0336801756160483 1.0754110688329999 9 12 210
2.5108462709361024 0.8914109270192203 1.0816086348670408 9 12 239
2.483435677336322 0.8524820832716355 1.0805607311322334 9 12 249
2.4968227335599034 0.979865994983155 1.0724629000338108 9 13 222
2.495493660860614 0.917262284606637 1.0748053761201442 9 13 235
2.4962821299817124 1.0794893898990692 1.064295075928314 9 14 201
2.5075979818183445 1.0288747931965885 1.0673007791048004 9 14 211
2.49152078676121 1.0106416265345517 1.0665176852444693 9 14 216
2.47454943102677 0.841515513707537 1.0714892062101986 9 14 252
2.5065797358368505 0.9672429236812378 1.0653011347953896 9 15 224
2.501317823439983 0.8908268247543085 1.067721679727027 9 15 240
2.489995232695481 0.9974199153440984 1.0583927273709413 9 16 219
2.5038806099372466 1.0498409318830018 1.0534560715084549 9 17 207
2.4866647281551533 0.8270557081634471 1.0600636326920172 9 17 254
2.5025466969555974 0.9502919540145605 1.048352170665766 9 19 228
2.47431736549813 0.8675984120264353 1.0488245189901215 9 19 247
2.4796907743572314 0.8151761973799363 1.0511236232568453 9 19 257
2.4934864939720884 1.0541120740996408 1.0397069856887282 9 20 207
2.4901620855885023 1.0458168691176914 1.0397104108196518 9 20 209
2.4861735429013594 1.0140892792098657 1.0404618307480349 9 20 216
2.4978209767466213 0.990931466691948 1.0422420195225401 9 20 220
2.4803647998688048 0.850590293555205 1.0412189322604521 9 21 250
2.49242194030451 0.7948873248392836 1.0440939702141494 9 21 260
2.5069953678265477 0.9396238159103678 1.0361089278160374 9 22 230
2.4869178927172695 0.9029433682659069 1.035669126426248 9 22 239
2.4708224686545397 0.8646584654049481 1.0356083199202333 9 22 248
2.5028631147762366 1.023456834811578 1.0287417030620458 9 23 213
2.484551132512253 0.9726278222502146 1.0246082594046988 9 24 225
2.488868631563789 0.9516826005079234 1.0256080642271095 9 24 229
2.484778860312662 0.808917119430913 1.0297660941262414 9 24 258
2.4760109169977986 0.79733462526665 1.0294347580533307 9 24 261
2.466726955190878 0.9936494817944709 1.0182804279241815 9 25 222
2.501528445575387 0.837752033098027 1.0257726033739245 9 25 251
2.4759964626616022 0.7512017681765086 1.0264369170283234 9 25 270
2.505080489197207 1.0330528041557583 1.0157795933101021 9 26 211
2.4673798122207122 0.7758189459668925 1.0205912221933136 9 26 266
2.4588959339558456 0.9778439834769564 1.0096312314545024 9 27 226
2.4897679163150523 0.8681218692275594 1.0151576108609879 9 27 246
2.5080647768628 1.03261049252013 1.0074387290976665 9 28 211
2.4970524491175983 1.0124915727305177 1.0071975017012536 9 28 216
2.497370882402156 0.9200858667599525 1.0098510264255818 9 28 235
2.477564589247435 0.7665590749217908 1.0127568714709023 9 28 267
2.4975822498531732 0.8854849182028843 1.006460312899104 9 29 242
2.483804241847131 0.855887015554446 1.0062812253343605 9 29 249
2.4607437798705476 0.825257549444508 1.001067391775205 9 30 257
2.455154758563978 0.7354135070962491 1.0030942920288433 9 30 275
2.4909113159673213 0.8984980624127146 0.9968586207106155 9 31 240
2.470411408175372 0.712905659337504 1.000298821147077 9 31 278
2.4700799691966107 0.8520321793645866 0.9922325931338564 9 32 251
2.4964957927453986 0.790275604607179 0.9911429775455445 9 33 261
2.4874390835265685 0.7317567347475451 0.991984629801266 9 33 273
2.4879112432079458 0.9742128033546411 0.9773404726066616 9 35 225
1.7312722794531532 0.2318970491681951 0.8835751098140424 9 51 459
1.5562126539637169 0.2451694351008995 0.8722757920838963 9 52 487
1.5521844193126555 0.2334290143445359 0.8722341465502357 9 52 490
1.60308789730425 0.23666614996075985 0.8705577670392447 9 53 480
1.6184771001353522 0.23206887526105957 0.8636667859034504 9 55 478
1.5380528909385887 0.25138664259843946 0.8605119114729928 9 55 489
1.528606128186844 0.24506557255827888 0.8602133203987207 9 55 492
1.513517729151715 0.24370387359238532 0.8524047066753174 9 57 495
2.4177983629395743 0.23189391856850738 0.8591577704627228 9 62 368
2.1514939578389396 0.22946434373785363 0.8518265175634038 9 62 399
2.027426834055213 0.22958359130319073 0.8484071285851641 9 62 415
2.48507662717726 1.0599886551068023 0.8496915137531134 9 64 209
2.453118468865683 0.9057428649491086 0.8491426931702938 9 64 243
2.4508018033940027 1.0478826863337554 0.8445143757589092 9 65 214
2.4683264630666466 0.9840819893051371 0.8449766719800482 9 65 226
2.4904913461233744 0.9265817450106837 0.8455423948820923 9 65 236
2.4800375718542513 0.9205493132168572 0.8453027097532418 9 65 238
2.458888777181242 0.7708507908588142 0.8449303306642441 9 65 269
1.9532957135990108 0.2413160943170869 0.8335326375143713 9 65 423
2.4604711771104575 1.0641849854592285 0.8360201517378901 9 67 210
2.4776034259956825 0.9714702733891232 0.836308361589697 9 67 228
2.452372649475004 0.9166718432256993 0.8357495651581691 9 67 241
2.4623674623461946 0.8827153145712048 0.8359318402669252 9 67 247
2.491306093781164 0.9469517778321299 0.8320821207435347 9 68 232
2.473325816285951 0.8684340433340361 0.8316214257857253 9 68 249
2.4572908729065635 0.8239161624507678 0.831247899208552 9 68 259
2.471665266310428 0.802333567213765 0.8314927571701876 9 68 262
1.6717920535236668 0.2587373038065084 0.8153143965435287 9 68 463
1.0382686813397497 0.2517475148246171 0.8031204973380195 9 68 603
2.482286749309064 1.009676703342092 0.823125816728681 9 70 220
2.4646155900176954 1.0012925095543574 0.822810141396877 9 70 223
2.4421640218206964 0.784281964477296 0.8217924549605681 9 70 268
2.4449082052244715 0.7306313568477385 0.8216772740582877 9 70 278
1.6865747616187954 0.25557877545287644 0.8077861070554563 9 70 461
2.4861501541357263 0.9346671115186023 0.818459232771662 9 71 235
2.4690260627181404 0.8860079153655727 0.8180189468898522 9 71 246
2.4581308169678864 0.7140794519055838 0.8172099782004169 9 71 280
1.649147343828525 0.26769939030739254 0.8033589585404808 9 71 465
1.3999772638520487 0.2468325187997502 0.7995302822589235 9 71 516
2.4677992520336423 1.0297155463338816 0.8141277633883556 9 72 217
2.4715791006048704 0.9849888510125755 0.8095221102130571 9 73 226
2.4832551480868594 0.941226372378017 0.8094341659218012 9 73 234
2.4539603878763976 0.92242334131582 0.8089757708008907 9 73 240
2.4460042490378666 0.8905292067746964 0.8087098320748858 9 73 247
2.4677861214465513 0.8717389664537198 0.8088776293759832 9 73 249
2.4340329463524353 0.7623379729514068 0.8078862033104058 9 73 273
2.4667946016267503 0.7050226662031727 0.8079851758290065 9 73 281
2.460196155508565 1.0475090063843782 0.8009175710567538 9 75 214
2.4407766253472296 0.7648969822792575 0.7988087626908081 9 75 272
2.4647447070651363 0.9587452722465732 0.7958779854060161 9 76 232
2.4757205617953546 0.9397938957142346 0.7958228207593402 9 76 235
2.459601151552978 0.8908433014083805 0.7953219289959713 9 76 246
2.4530980080530815 0.7857871714659961 0.794473338493087 9 76 267
2.435187909511249 0.7465663083964758 0.7940317523505236 9 76 276
2.466988168777569 1.002310531023309 0.7917744821676077 9 77 223
2.4612771851265123 0.989711160750254 0.7916313065373164 9 77 226
2.4734135280490173 0.9209168156761989 0.7911379366374827 9 77 239
2.467319035453401 0.831811060292954 0.7903536768689569 9 77 257
2.4261911313690194 0.7350139238310809 0.7892719952873141 9 77 279
2.4534805750209454 1.0413185804501737 0.7831923968247287 9 79 216
2.4793628845301634 0.9241471434988335 0.7821339872592818 9 79 238
2.451668987344662 0.8540765962603096 0.7813348674223946 9 79 254
2.4221299164668624 0.815257625327579 0.7808375120122898 9 79 264
2.3222051338192813 0.7781338506726212 0.7756531492463434 9 80 280
2.4584298867495513 1.0015191116029807 0.7739091384397274 9 81 224
2.4203057509600043 1.0053748529258157 0.7739136961711065 9 81 226
2.479450588682104 0.9145303369907176 0.7729372248938716 9 81 240
2.486439157662447 0.9472706734558305 0.7687766275058758 9 82 233
2.4623972974793333 0.9011867057673475 0.7682236362138389 9 82 244
2.4497164893218883 0.8758587580338326 0.767919511198222 9 82 250
2.28344862520582 0.8508604892425222 0.7676766696914756 9 82 269
2.447929275183623 0.8666325272165238 0.7632537724435761 9 83 252
2.2554805742556 0.8441081994343198 0.7546931554158643 9 85 273
2.300353129712638 0.8492299155009329 0.7458144396446245 9 87 268
0.7471483724460524 1.4505106105312273 0.7376803196723745 9 104 308
0.7480168220830852 1.43172804197514 0.7353456972786601 9 105 317
0.765942438825331 1.465414703069158 0.7304908059527955 9 108 296
0.7441440399916808 1.4584136492459896 0.7223842312808357 9 113 305
0.745848924847906 1.4433752626794885 0.7200016118350965 9 114 312
0.7461163144745967 1.4246978267662085 0.7192936936206604 9 114 321
2.44692152409376 0.9150398242600819 0.6125456466697998 9 116 244
2.4521061737767784 0.8925981224114297 0.6114199445236794 9 116 248
2.4488880996841695 0.9043210088259379 0.6073635853926269 9 117 246
2.425711451380875 0.8625612823728952 0.602205747209978 9 118 256
2.44383989018875 0.9472569761262419 0.6000513857205187 9 119 238
0.9251286052302974 0.25691051827156364 0.6527019468313209 9 119 629
2.440918185062236 0.9233698790473448 0.5945672142782354 9 120 243
2.430119244397095 0.8611680165924396 0.59254591862192 9 120 256
2.4225337452881632 0.8175788739186098 0.591130441110752 9 120 265
0.9091183955033104 0.2528335644821884 0.6356077483247166 9 125 634
1.3550646144457328 0.29800961263346437 0.559381187464878 9 139 510
1.3914618286447091 0.295073588345212 0.5488054992395759 9 141 503
1.3772709891924821 0.29438408063013277 0.5499825369840902 9 141 506
1.35156950667239 0.29579827139295656 0.5522713121142317 9 141 511
1.468754184069591 0.29966961745315013 0.5386314608961074 9 142 487
1.2825248179894042 0.29359127014161857 0.5509816409143219 9 143 526
1.4078308903767816 0.29774193904242097 0.5363770507666106 9 144 499
0.8898385583891342 0.2649291077427418 0.5811256429606104 9 144 635
1.3903538395098523 0.29946038992767976 0.5306438251443132 9 146 502
1.3948056488220673 0.29926336821363875 0.5227721147558885 9 148 501
1.5002060213934525 0.3032936072438073 0.5090052430078559 9 149 480
0.9136273681678033 0.26456040811331283 0.5638101312375934 9 149 627
1.372010297678305 0.2911943624863689 0.517041511755693 9 150 507
1.4785145575207819 0.29740683931153855 0.503020831259863 9 151 485
1.5098460345509679 0.2982703803086948 0.49601046269620086 9 152 479
1.3205466148680038 0.2934424340668871 0.5114057382579182 9 153 517
0.8923861530576436 0.2598776308622648 0.5535246783256202 9 153 634
1.51820361403894 0.3054623753354919 0.4877973448723977 9 154 476
0.9317326190036637 0.2686853693688358 0.5469749176118995 9 154 620
0.8883070123973502 0.26348647357541743 0.5421321156098737 9 157 634
1.764246940370445 0.307019149315801 0.444785945484836 9 158 435
1.7105307547238164 0.30276671505266317 0.450454805525145 9 158 444
1.3764553396912989 0.29333093614897243 0.4832117234467436 9 159 505
1.5601979801417423 0.30618332988634833 0.45540480221584206 9 161 468
1.5150744731335026 0.30082988220876317 0.46022860918239156 9 161 477
1.4804231399974672 0.30224063870056517 0.46044875131784946 9 162 483
1.9727856893276159 0.7127628115948201 0.42964671804692034 9 163 330
0.9275008553487749 0.2642348608032874 0.5193488110562461 9 163 621
1.9364749338454632 0.7137037711683096 0.42551457613720617 9 165 334
0.9167191687345113 0.26851737522937924 0.5117140898176077 9 166 623
1.9165581619787706 0.7153921787020194 0.4196018240729089 9 167 336
1.3573789030852281 0.29423664795055937 0.45188264125697775 9 168 508
0.9004144995945385 0.2671458859428726 0.5074862492304293 9 168 628
0.9322962378517441 0.2624818172475947 0.49682618067648 9 170 619
0.937714052836649 0.2531191229652645 0.48905570115977703 9 172 619
0.8949651149715725 0.25792216261913103 0.4951309659854175 9 172 631
0.9510807090950539 0.25211012317668113 0.48085073949265905 9 174 615
0.8826019463622341 0.2616460521929316 0.47253149392795 9 180 633
1.2750805311527422 1.5157626391323995 0.463701739263107 9 205 196
1.1813171264017663 1.5338686283093974 0.46524432393017173 9 212 200
1.1731754672132277 1.5210276438261645 0.4653074782079225 9 212 206
1.1470591265546561 1.5066030144063254 0.46365779873911506 9 214 215
0.965517933411081 1.542277038733801 0.4752035326746504 9 227 226
0.8942145368167191 1.5677315573855375 0.4753154929879594 9 236 226
0.6607446681741929 1.5274065135729051 0.4832651632898863 9 259 294
0.6354020058679339 1.5266589904820715 0.48297380196518247 9 263 301
0.6104367629427528 1.5392406647296135 0.48339823523852493 9 268 301
0.5945976690121886 1.5308688494985914 0.48140681927545725 9 271 310
0.5963674062800906 1.5133042957168477 0.4761463362635445 9 272 319
0.9397779698935178 0.6899297959466586 0.21787212641373477 9 277 511
0.9213745951636239 0.689788608759641 0.22340297815402543 9 277 516
0.9847192561483378 0.6949533520165325 0.20203633564545198 9 278 498
0.8850346404700891 0.6939338868823808 0.232118138724829 9 278 525
0.8749770759975484 0.6893384678903538 0.23435279201431858 9 278 529
1.0189635462450237 0.6920805641585777 0.18467973179818287 9 280 490
0.8132847492107662 0.689951838471635 0.24743822539512728 9 280 547
0.6715166005011826 0.6728289358608617 0.287877332314659 9 280 599
0.6589386058928377 0.6714812187245425 0.29149605071125495 9 280 604
1.0485734749042823 0.6869756478106455 0.1713864610014625 9 281 484
0.9596871408483265 0.6916544094725432 0.19967183540445677 9 281 505
1.0371424378721195 0.6855334436022751 0.17138478587032557 9 282 487
0.8896341340622849 0.6871500207842656 0.21746521226785998 9 282 525
0.5825865694528831 0.678225952683986 0.31114917568827233 9 282 632
1.0969485741347627 0.6983704243659661 0.15179325699846768 9 283 470
0.9991243823958695 0.6865532482043335 0.1801641784127257 9 283 496
0.8061636113398372 0.6855006687149237 0.24019570048161865 9 283 550
0.5829628305726821 1.6138168114812548 0.47794374547209684 9 284 266
1.1492675985230916 0.691739313709598 0.1307903029870301 9 284 460
0.8524708339892251 0.6892154213068931 0.2234650072944071 9 284 535
0.7172600391749284 0.6855516706436202 0.26522257844197394 9 284 579
0.925417283781292 0.6906796723212723 0.19775915491828489 9 285 514
1.03493971287047 0.6865571597771822 0.1591632622560818 9 286 487
1.000406273866615 0.6842453663282009 0.16968926247159832 9 286 496
0.8217376653392319 0.6891703151880404 0.22728303840865172 9 286 544
1.1929491921030069 0.6771620410675543 0.1037329239326078 9 287 454
0.9576337166210838 0.696008009512739 0.18230184376189862 9 287 504
0.7037537213053753 0.6789781321028507 0.26009852521850696 9 287 585
1.3480077688096195 0.6274206999376402 0.04112086459876241 9 288 435
1.100389397312091 0.6979935136097937 0.13375513333563105 9 288 469
1.3865005798222947 0.6469594697993855 0.028513195522033907 9 289 424
1.2788903062988441 0.6265508438150023 0.05935827750258871 9 289 448
0.9479437738768244 0.6934079731302512 0.17864664874739478 9 289 507
0.8518468335037359 0.6920760558297088 0.20937504460789746 9 289 534
1.1153499641139333 0.6917669995820923 0.12094540393528275 9 290 467
0.8198083444657454 0.6899156828129482 0.21637818305628043 9 290 544
1.310662897761989 0.626034013407363 0.041371208519052516 9 291 442
1.0527162593742285 0.6925968177298585 0.13808265489032767 9 291 481
1.0088521216754456 0.690687292947292 0.15201077459485957 9 291 492
0.9076463194712194 0.683758292704377 0.18366627122665347 9 291 520
0.6861573813908393 0.6819841329927967 0.2554928262268208 9 291 590
1.3651348622272401 0.6357206438455629 0.021553236991347147 9 292 430
1.2636604467646049 0.6301663360012961 0.05372734224730347 9 292 450
0.9171859907312128 0.6891459092149477 0.17849110546897307 9 292 516
1.3435966692185564 0.6394867930779977 0.025450970737905365 9 293 433
1.1687413822057109 0.658031919778161 0.08658822907052399 9 293 463
1.1011317103615048 0.6829964823539587 0.11364783557688418 9 293 472
0.6795065093547475 0.678573952933681 0.2516215447242186 9 293 593
0.5901394207031421 0.6716039744169968 0.2797067136887754 9 293 629
1.2056105758149664 0.6413652625555226 0.06760390606463829 9 294 459
0.6371881609270236 0.6769022733682393 0.26260667360857637 9 294 609
0.6272238330782148 0.6801781018091404 0.26653745504330284 9 294 612
1.3917850679792871 0.7160431827008469 0.01651202390625306 9 295 408
1.337977760177655 0.6762932125332226 0.02669868059148195 9 295 426
1.1930285486119008 0.6437394512034038 0.06860598939357077 9 295 461
1.07301756687006 0.6840713594269026 0.11636341728558053 9 295 478
0.8989411179979458 0.6880853763182739 0.1750595707755329 9 295 521
1.2860037427012943 0.618498733598098 0.028963714968327836 9 296 448
1.1411313988649054 0.6522951535791495 0.08400658153859908 9 296 470
0.9852636848667411 0.7011180561034878 0.14565762509687386 9 296 495
0.6898100420786908 0.6782991058434467 0.24001792391379806 9 296 589
0.6068613214584524 0.6750161419028458 0.2671188417745346 9 296 621
1.2109980248902537 0.6355792250281536 0.053712988256275795 9 297 459
1.0039921730823287 0.6980468036298066 0.1355452809960871 9 297 491
0.5759648589763647 0.6764884323449523 0.2752093311695687 9 297 633
1.297829781356807 0.6402606397673698 0.02162369666446562 9 298 441
1.0558732494561591 0.6873738159835803 0.11265960894999649 9 298 481
0.9600670966952392 0.6896842988624516 0.1454876010505407 9 298 504
0.9212812919211482 0.6948289335842668 0.15960655243088961 9 298 513
0.8643145597269848 0.6901438204735224 0.1779329407180429 9 298 530
1.312504910413736 0.6691003662673132 0.018526140350495046 9 299 432
0.9083056561230851 0.6883605661893641 0.15961748738407477 9 299 518
1.1946780495357436 0.6271896935234105 0.04659252703043304 9 300 464
0.985047400912112 0.6958772678744967 0.1318120720725603 9 300 496
0.8157459310019013 0.678601798563119 0.18617133775380212 9 300 547
0.7502617567763599 0.6816178486620912 0.20912536062548326 9 300 567
0.7402826326068801 0.6828551073385993 0.2127779496626685 9 300 570
0.7290491804344821 0.6779071094319602 0.21562883482847173 9 300 575
1.3174061134624369 0.7327055794721085 0.02190358987869112 9 301 417
1.3042978447503066 0.6892987394308387 0.01772871759968697 9 301 429
1.0363845950759822 0.680467466459092 0.10788710526425549 9 301 487
1.2532812020267103 0.6370053412133607 0.02102721098908633 9 302 450
1.0819618531490056 0.6468668282812411 0.08208556712167436 9 302 484
0.8184468613295324 0.6866711918114936 0.18094806961725107 9 302 544
0.5954112878307465 0.677900701158278 0.25610025120630575 9 302 624
0.6645621470388752 0.6792474651053853 0.2298276531655079 9 303 597
0.6366676468300856 0.6768835116408871 0.23901869508022133 9 303 608
0.6272355749620057 0.6713151905420318 0.2411646006820456 9 303 613
1.3339949160818847 0.8117676326112901 0.020801271738662197 9 304 396
1.3225943746465232 0.7812245924696082 0.018582803639016765 9 304 405
1.3259563593823642 0.769880257073051 0.015112778720343445 9 304 407
1.1625443366295896 0.6384276333131664 0.0453947347224295 9 304 468
1.0217832716191295 0.6688186031479757 0.10058460970338734 9 304 493
1.13610764595084 0.6231116994471475 0.04792150764863923 9 305 477
0.781812071465656 0.6827022466739552 0.1840837138622642 9 305 556
1.2443551442295346 0.6577870091623823 0.013349585609662484 9 306 447
1.20023265636492 0.6431708020079312 0.025882772782076957 9 306 459
1.1875537320572247 0.6413575718890996 0.029972535238221965 9 306 462
1.1394640892482673 0.6330800635075733 0.045198098583558055 9 306 474
0.5783022582417032 0.6753997407206531 0.25128223552383344 9 306 631
1.2435159855224778 0.6989728462264315 0.018369407476332977 9 307 438
1.1198751239624753 0.6205265131195161 0.04596244911709135 9 307 481
1.0970992457953959 0.625475714634101 0.0550323834611548 9 307 485
0.9800402950994829 0.6735135006856967 0.10629313625986536 9 307 502
0.9331414650645087 0.6867710983789068 0.12559966202542405 9 307 511
0.6699857542969103 0.6812959303396564 0.21751737910355118 9 307 594
0.6508662674588219 0.6774054848459392 0.22347782422491314 9 307 602
1.3353275026418814 0.8531535378218678 0.013877775196510123 9 308 386
1.2742376795945103 0.7919601055820074 0.022948952819048296 9 308 411
1.2770872278010255 0.7680808396453811 0.017005961716330842 9 308 416
0.845829845753896 0.6918111768043933 0.15449058085902023 9 308 534
0.77102748658043 0.6831254696522195 0.17927563695549265 9 308 559
1.3069013862815846 0.8438854966803544 0.01838431871701829 9 309 393
1.1511700760548487 0.6523978351897348 0.03426959830760201 9 309 467
0.8055165944842437 0.6875866778096564 0.16499039285547612 9 309 547
0.741554886808788 0.6850753466564927 0.18730806137307077 9 309 568
0.6203225004740157 0.6787105164696805 0.2292758413289716 9 309 613
1.3154816536603435 0.9002474835035297 0.023367266457361202 9 310 378
1.2629162952774555 0.7790319381984054 0.016968125885272856 9 310 416
1.0630624908811215 0.6192358866372578 0.0553790436343935 9 310 494
0.7002123408823782 0.6807808170101997 0.19840249473489502 9 310 583
1.2277893992005782 0.7555168133428989 0.021038341004482763 9 311 428
1.1860414104012031 0.6908619392223827 0.022555795163121672 9 311 451
0.5977564743436541 0.6770560535185783 0.23178608018651503 9 311 622
1.1379923901328395 0.6417584593128698 0.02601207713035003 9 312 472
0.6862316511686158 0.6794591010716551 0.19762813064511986 9 312 588
0.6771456086016181 0.676405085461641 0.2002779777272239 9 312 592
0.6568224346397349 0.6779771940197987 0.20797233704282447 9 312 599
1.2595175859495216 0.8656728559781826 0.025481815295290144 9 313 396
1.2380790349686082 0.8110330342999488 0.02174313322093302 9 313 413
1.2113422801932177 0.7254388370950497 0.013393469695962223 9 313 438
1.169836204565988 0.665082272612497 0.015753336251367767 9 313 460
1.0924940450143672 0.6282231285211912 0.036125250121467944 9 313 485
1.073782204998805 0.6249831473041794 0.0422534953132474 9 313 490
1.2998260951831817 0.9025466638212416 0.0149667459292524 9 314 380
1.107606216652244 0.630628969984387 0.027577912095751667 9 314 481
0.9050676857266138 0.6781537027598681 0.11176330787092359 9 314 520
1.1961377903260648 0.7768559345725672 0.022652164888494752 9 315 429
1.1494334984292593 0.6702765099304568 0.01709776674217256 9 315 463
0.721708755813907 0.6848831179824983 0.17744853503217062 9 315 574
0.6741198067992136 0.675225958556493 0.19288381111532804 9 315 593
0.5738300571687244 0.6774862039236753 0.23023337774250197 9 315 631
0.5659380879939296 0.6785250573012043 0.23335604690799472 9 315 634
1.1711617986326974 0.746627084948301 0.021827838399969268 9 316 441
1.1424796921009328 0.6942264468578543 0.0211995507170758 9 316 459
0.6497053842416406 0.6784191066832694 0.19983268100527063 9 316 601
0.6000858882134997 0.6785309205796062 0.21818484075574152 9 316 620
1.2255169833972004 0.8535974183714257 0.021103410993204008 9 317 405
1.1203017674479154 0.6575144737966359 0.017968106327231448 9 317 472
0.9824993991180373 0.62386557398813 0.06187300830759779 9 317 512
0.8684937406773225 0.6819459878539813 0.11668047278791882 9 317 529
0.8300491228759053 0.6908464737709223 0.13286367138779076 9 317 538
0.8272651525687285 0.6819000362606866 0.13197219458459375 9 317 541
0.6426355798695723 0.6804400878133314 0.20018165569087598 9 317 603
1.2486834790671943 0.9016525608496742 0.019288791735655897 9 318 389
1.0888460434660838 0.6482218979287122 0.024125648795013888 9 318 481
0.7359137698119406 0.6844348774312607 0.16356275060957604 9 318 569
0.7099453479048843 0.6794338842546581 0.17216584015820058 9 318 579
1.2240077267653418 0.891221560465205 0.022711218463096317 9 319 396
0.9525562425082357 0.6305347636718692 0.06782954763692561 9 319 518
1.1332437494041134 0.7407454521393508 0.020540071788818448 9 320 450
0.9826564132751101 0.6313714239050956 0.05338009646884023 9 320 510
0.6168941413553797 0.6819953841309885 0.20210878823156575 9 320 612
1.216597089578201 0.9045059798378745 0.02136243834098972 9 321 394
1.0528995342119185 0.6439643916831628 0.026214082695437235 9 321 490
0.6953371960167312 0.6822356846973272 0.16983349564443118 9 321 583
0.596066898907305 0.6780878719130077 0.20647114941289635 9 321 621
1.1478218715816637 0.7826252304467634 0.017174861023950716 9 322 437
0.6391298725732284 0.6830565448731858 0.18857177402851555 9 322 603
1.1143062514351674 0.7444025549610531 0.01801477263890572 9 323 453
1.0598976338477042 0.6757891461296908 0.023625805724140747 9 323 481
1.150750205109123 0.8378171098975353 0.021277233164642917 9 324 423
1.0188375892934203 0.6256692775939485 0.024790197434561567 9 324 502
0.7081314359726087 0.6830946367691468 0.15670587876104702 9 324 578
0.6693818036235328 0.6815395767860188 0.1712231721749694 9 324 592
0.6059273991921431 0.684855785029876 0.19629705576998657 9 324 615
0.5749383062398472 0.6743991872293909 0.20586227407035784 9 324 630
1.1017469075437871 0.7847102009897058 0.024853434665578322 9 325 446
1.0828331565213645 0.7347773347320059 0.02101118839522287 9 325 462
1.1682463090913378 0.9041583733112555 0.022416358925030355 9 326 403
1.0682010702213005 0.7271452118619357 0.021515293855040696 9 326 467
1.0569769272807874 0.7124033291084593 0.022559873903264638 9 326 473
0.9662573268580064 0.6254378801620515 0.03820863511545791 9 326 515
0.8126334206358476 0.6714003840314535 0.10796828780399526 9 326 547
1.0216073350873605 0.6438202612682093 0.017462875911940623 9 327 497
0.7696955093960808 0.6886410400346761 0.12550835871066213 9 327 556
0.7390834505034579 0.6922451123107893 0.13822363351644618 9 327 565
0.7149364556155893 0.6884571037804297 0.14676252115296273 9 327 574
0.8861392708232823 0.626530487373234 0.06304487916422086 9 328 536
1.1115733201671834 0.8328839174526732 0.0181562904841035 9 329 432
0.8036807392050025 0.6521381468380723 0.09799888417655966 9 329 554
1.1324127226381735 0.895753489747243 0.02084038656296583 9 330 412
0.8567736893988938 0.6184287767765313 0.066340818372704 9 330 546
0.7470748284979623 0.6883677685788725 0.12552181670090978 9 330 563
0.6807665049018607 0.682269702376687 0.15027523462149117 9 330 587
0.5892117807124939 0.6799001672073057 0.18583154246799338 9 330 622
1.072308678501394 0.8298845886282251 0.026175370420568944 9 331 441
0.7112118475650537 0.6876119803502236 0.13663901520606792 9 331 575
0.6579555162792341 0.6784705940687967 0.15563977220888603 9 331 596
0.6461269935523251 0.6798574215998574 0.16064169737309786 9 331 600
0.6268194191401892 0.6848282707173092 0.16942560512193383 9 331 606
1.061673956003886 0.8026332148229727 0.020784685110245116 9 332 450
1.0469350392913273 0.7833678750712798 0.022222157691461852 9 332 458
1.0248427701085479 0.7295985498563997 0.018657706895995885 9 332 476
0.5697693746899732 1.5215054469527036 0.37986428813524753 9 333 323
1.0970512156975074 0.8881701978985115 0.023011407382589777 9 333 421
0.8902190339845462 0.6194225682788261 0.04365930098192139 9 333 536
0.7949398762419605 0.6233966214171835 0.0826531394926352 9 333 563
0.7251637633451172 0.6797064998411919 0.12353077539301949 9 333 572
0.6862193445149938 0.6851350643953451 0.14034688769819903 9 333 584
0.6686622421791553 0.6779470581606302 0.14570479553922744 9 333 592
0.6151223012591671 0.6815984896426248 0.16794374239300458 9 333 611
0.5676135532771358 0.6771238808324329 0.1858974516267855 9 333 631
1.1088286547535495 0.894215758090855 0.016329872139423385 9 334 417
1.033304239575745 0.7791983215240565 0.019996101279491252 9 334 462
0.9680011370312793 0.6598931289704271 0.018565622840330143 9 334 506
0.8440696660056843 0.6152565214134083 0.05797249097817536 9 334 550
0.8261739843440807 0.6208313910982914 0.06644817922658153 9 334 554
0.9290736245780002 0.6249466323857111 0.022779570691804696 9 335 524
0.7581565049059867 0.6588501349709306 0.0995878627531851 9 335 566
1.0502989909570277 0.8481482601808845 0.02252076377604828 9 336 441
1.0273156265626833 0.7966014081239106 0.019783835054080545 9 336 459
0.6952303900057516 0.6830675626006171 0.1277567714141924 9 336 581
0.582837785568105 0.6746172804127895 0.1713043992880281 9 336 625
0.9415137316004318 0.6492226874381242 0.016775207402012438 9 337 515
0.8994886995797775 0.6240292127624074 0.027960066889096913 9 337 532
0.8756043138370508 0.6224251123228359 0.037300553430973826 9 337 539
1.0637192081606233 0.8952206699933993 0.021486231806761347 9 338 426
0.7920830876741931 0.6204629061317086 0.0677365737603558 9 338 564
0.8248031362495418 0.624589785125401 0.05219777620992616 9 339 553
0.7590249138883437 0.6303812554584118 0.08056642740494502 9 339 572
0.6662935931559131 0.682358610456872 0.13092763164928534 9 339 591
0.5773616802640272 1.5418935520247299 0.3690486994127822 9 340 310
0.9057770330282107 0.6501674732319054 0.021750643876650155 9 340 524
0.6567035214973067 0.6796477531743987 0.1314365888599648 9 340 595
0.6390163415231845 0.6816705901398612 0.13920881424855613 9 340 601
0.6244146903054295 0.6836077569086192 0.1456886753231489 9 340 606
1.0035061085143522 0.8532912545333964 0.026488066130675003 9 341 450
0.7056069378009432 0.6617654127388819 0.10413191680860501 9 341 582
0.5759282477365271 1.5258920614285145 0.3622266383074798 9 342 319
0.9536705117881825 0.7486869557403453 0.01890034418148323 9 342 488
0.8825921734030842 0.6378868037362087 0.021909598129624674 9 342 533
0.8724925740398788 0.6327745994264959 0.024884721472204774 9 342 537
0.5726122246332527 0.6756485619968835 0.15986933219920352 9 342 628
0.9189705507491233 0.723174975091271 0.023991158629191878 9 343 503
0.8492759413273419 0.6263208450943507 0.029796967741998248 9 343 545
0.813509722706037 0.6200214157171033 0.04322016920284377 9 343 557
1.0129645112873829 0.8908623040741905 0.021845394046030142 9 344 438
0.9688035422394201 0.8139901008317549 0.021797950045763015 9 344 468
0.6483246782645622 0.6777530127769023 0.1233222474394402 9 344 598
0.9874682606861853 0.8630855742448105 0.022611349827377003 9 345 451
0.7394531487398766 0.6116577707588653 0.06610695036300895 9 345 582
0.9753818483885228 0.8388716408927732 0.018605137660311577 9 346 460
0.8511707659246817 0.6442733012338819 0.023759397468054222 9 346 540
0.9491933167267141 0.7965005350724141 0.016142967861028645 9 347 477
0.7727435214041024 0.620490302051594 0.04807502584938672 9 347 569
0.7166797538721175 0.6130997387302437 0.07009186181821303 9 347 589
0.6768419613982797 0.6334525819030867 0.09199926600003294 9 347 598
0.9155324622057264 0.7499725524921401 0.015856501693932046 9 348 497
0.6329061880318156 0.6743641774528493 0.11790599967997928 9 348 604
0.5766278141724022 0.6817302014595383 0.14373331770426523 9 348 624
0.9806294930473916 0.8838560691107373 0.017756516608156803 9 349 447
0.9337034249226246 0.8114160253310851 0.020006093707482853 9 349 477
0.8775146770206628 0.704964612249205 0.017838805930339596 9 349 518
0.8585830454355903 0.6893648895249913 0.02210618736551584 9 349 527
0.579239381631654 1.5337593116319375 0.348232913157082 9 350 314
0.8884929799042705 0.7418553574830953 0.019054667056287555 9 350 506
0.8223258529248243 0.6399491499064096 0.02230389381320297 9 350 549
0.8031880370079045 0.6258607599846688 0.027053193283890442 9 350 558
0.7619662586299403 0.6207675709596769 0.043535147996893064 9 350 572
0.5732494788045703 1.5199643389291329 0.3455716033678017 9 351 323
0.605651477816363 0.6781949945593579 0.12231009158543549 9 351 613
0.5714069898454199 0.6763287499672783 0.1366485260493634 9 351 627
0.559590157527901 0.6756045928008847 0.1415763971666003 9 351 632
0.9625706297669998 0.8880626032490591 0.017029482751501623 9 352 450
0.8641254469650996 0.723374984290706 0.018658415035030518 9 352 517
0.7069247951364996 0.6030072833784856 0.05685413422664576 9 352 594
0.9217279962940619 0.8340335428439563 0.01811941612474932 9 353 474
0.7939452488878791 0.6365826585085781 0.024342014604736617 9 353 558
0.6189665611491986 0.6560765728517124 0.10550334852797982 9 353 613
0.7694915498334689 0.6257139194696231 0.029190916766930197 9 354 568
0.732471197932595 0.6167881268388891 0.04315090973728264 9 354 582
0.9315721971108486 0.8817786876159459 0.01953470042990879 9 355 459
0.817771460414626 0.6984779435426516 0.02325767195399364 9 355 536
0.7181841982863746 0.614626141069577 0.04284318744553506 9 356 587
0.7083127843865485 0.611726519821918 0.04646530392230663 9 356 591
0.5897671480725437 0.6637941909605809 0.11199912551978475 9 356 622
0.8796727340524126 0.8053214188972486 0.016801500122823332 9 357 492
0.6978601505194927 0.6093030485291095 0.0474831192314249 9 357 595
0.6737210851570217 0.6068015284540975 0.05754618036697212 9 357 604
0.6597719554180574 0.6153530482955416 0.06590668736109861 9 357 607
0.8231353857298656 0.7319879099541677 0.020098850585911543 9 358 526
0.7622816147936028 0.6378205841713585 0.023113791419372642 9 358 567
0.7950453184415853 0.6917074428835557 0.0192214192390624 9 359 544
0.7822921840861061 0.6702971667269921 0.019426839462979295 9 359 553
0.7313193907281224 0.6243954623347565 0.03042920068123922 9 359 580
0.683600084959016 0.6165493843708001 0.049743749665416725 9 359 598
0.872092580885198 0.8472733386402813 0.021636463236369807 9 360 483
0.8126641353079045 0.7273731538950865 0.01741617436602816 9 360 530
0.5621400623936312 0.6699209122126095 0.11504786952677182 9 360 631
0.8204491296745151 0.7582796340386495 0.018815285088820355 9 361 520
0.7496079894391561 0.6530685298235759 0.020477416302475904 9 362 567
0.8614905693584416 0.8458454908543578 0.016845730795562064 9 363 486
0.5911753649359373 0.6064674009484232 0.07726034904690338 9 363 634
0.6961331350152633 0.6203348263350015 0.02720738446753268 9 365 592
0.8331958168543818 0.8402832808503213 0.019182063236991453 9 366 495
0.6090849585706635 0.6134027880299096 0.06241804149375929 9 366 625
0.7849977374667374 0.7891768263866248 0.021883913813433686 9 368 522
0.7646538707818364 0.7463694326776911 0.01993931121725312 9 368 539
0.7516781540170929 0.7264236094460657 0.020654366071003016 9 368 548
0.7369398196838413 0.708898067797183 0.02282983581467324 9 368 557
0.6715914911164074 0.625231543441807 0.030891717749985004 9 368 599
0.6464824964937923 0.6203332330093578 0.03831895704876731 9 369 609
0.6035629329595473 0.6076897144596476 0.05492451202072224 9 369 628
0.5991470878041392 0.5845894368981246 0.050817320390061926 9 369 635
0.7261281183941946 0.7222595126061759 0.025477064902792 9 370 557
0.7066073433265178 0.6621806694120178 0.018510951834851297 9 370 578
0.7390661034774615 0.7492901191665025 0.023709952545213575 9 371 546
0.599109182043989 0.5870431109196361 0.04289796943434576 9 372 634
0.6595273814609206 0.6272652844089934 0.019402926341428373 9 374 602
0.6232169673448653 0.6148833299755001 0.03038518959002867 9 375 618
0.6149519064389938 0.6110227932356991 0.0332715795256151 9 375 622
0.7294872733264217 0.7708224581710295 0.016411836072369068 9 377 543
0.6335303069187092 0.6273252630277781 0.023057137254244187 9 377 611
0.6030257720314315 0.603406076300461 0.031136187958462402 9 377 628
0.5915482269419889 0.5939044378664524 0.02256522925142468 9 381 634
0.6076228549121262 0.6388482415477339 0.01867675861178153 9 384 617
0.5975473164086427 0.6167121112000111 0.017403805039943876 9 384 626
0.6182343128679191 0.6797736855555363 0.019291863631499706 9 386 603
0.5953279764109436 0.6490992974069687 0.021966694175244772 9 386 619
0.5817816395489941 0.6398329362625823 0.017588240242915276 9 389 626
0.5665471607768726 0.626445462121769 0.018587465951933613 9 390 635
0.615329402569541 0.7258520693444694 0.01699781343094875 9 392 592
0.5882175776847804 0.6985982276525484 0.022876335979333806 9 392 609
0.5799698791532524 0.6900657194596884 0.019018217678836047 9 394 614
0.5629115530636486 0.7071103971100992 0.021766071860296998 9 398 616
0.5528232646789605 0.6868291699025808 0.020995826846120336 9 398 625
0.5845923068121863 0.7407102514656665 0.017697182267388145 9 399 599
0.5405840217358571 0.669557659260454 0.019487936775681614 9 399 634
0.5891409412822011 0.7721300408282619 0.019200449945177667 9 401 589
0.5184498073539305 0.7033301791143396 0.022323298678601056 9 406 634
0.5488598330509615 0.7565575024761229 0.01958061699801439 9 407 608
0.5414983815128812 0.7486338874744656 0.021111953026928143 9 407 613
0.5322142753285155 0.7279888377844286 0.019780211645698875 9 407 622
0.5616185065209405 0.7867446396101001 0.019273894892063437 9 408 595
0.5520463940587317 0.7816480025796473 0.020190393597983358 9 409 600
0.5613033630458625 0.8091005889005998 0.02097008964928837 9 410 589
0.5220311896860965 0.7391913898914382 0.020679008362704976 9 410 623
0.5710446150998225 0.8392660417572517 0.022347782035550545 9 411 577
0.5318676684040575 0.7658541953135831 0.020918831626859036 9 411 612
0.5019740018459283 0.7194209029193939 0.017481683851853336 9 413 636
0.5058690050717513 0.7475434408229495 0.018846617226691897 9 415 627
0.4922220068049943 0.7385985168672136 0.020949579239591176 9 416 635
0.5414893982020319 0.8458872137056737 0.022252849373473715 9 418 586
0.5281544707813257 0.82152503148726 0.02196074493402378 9 418 598
0.510424742874051 0.7927956790239139 0.02273714977295349 9 418 613
0.5442344783654148 0.8772957791829072 0.025518524630170236 9 420 576
0.5343357532348212 0.8518954280910975 0.022958895280583702 9 420 587
0.4866513755928775 0.7838206386861364 0.022836613322505306 9 422 625
0.4711063699431406 0.7738850770906489 0.0207243479181084 9 425 634
0.5179650284124819 0.86624530729666 0.021376420785861994 9 426 589
0.502797973160767 0.8598589084187211 0.025458000951484205 9 427 597
0.4984244465729617 0.8336474396870828 0.01938929623902319 9 427 606
0.48654756574038804 0.819237669130505 0.021518334014305363 9 427 615
0.5285545022015163 0.9203735529304999 0.025349576371434646 9 429 569
0.5194539358546701 0.9019272834554655 0.0245496695165226 9 429 578
0.5114339537859984 0.881814682169864 0.022572175894921442 9 429 587
0.575915751276924 1.0057896312812469 0.02092283321716648 9 431 525
0.4664400726982143 0.8166928418801906 0.022148232349022523 9 431 624
0.5951958203282817 1.0440955416595896 0.019819252852619984 9 432 506
0.5843192673636705 1.027859065424934 0.020792114488284108 9 432 515
0.5090628167807489 0.9152427763551525 0.024910931166831185 9 433 578
0.49427060406006473 0.8736882922112759 0.019729133759547324 9 433 596
0.44612309004380946 0.8160264524285856 0.026298130911659667 9 434 633
0.5146965432089352 0.9437892074344663 0.02361666607301738 9 436 567
0.4756848463545773 0.8688904398706438 0.02153775263729807 9 436 605
0.46408952013202653 0.8549596970877031 0.023732535244152864 9 436 614
0.4920049218169881 0.9071990485358299 0.022255547538803433 9 437 587
0.4374994052075719 0.8287843315120627 0.02574350220018018 9 438 633
0.5643718131457056 1.0491295604658437 0.022132364919946856 9 439 515
0.5532247059821565 1.0336185954170076 0.021043916976876798 9 440 524
0.4625383746668418 0.8878426790582237 0.025864284942410443 9 440 605
0.4459197715753431 0.8574814011931551 0.025500250884531228 9 440 621
0.541521263638304 1.0188957720228777 0.020570390193268784 9 441 533
0.5303718593863949 1.0039515974262625 0.022187551030107278 9 441 542
0.5190497434017205 0.9959253128537771 0.02628273383442492 9 441 549
0.49054718137332254 0.9450734735685278 0.023601341500963935 9 442 576
0.4698072977681258 0.907182841873456 0.023147029911285033 9 442 596
0.5081430362675603 0.9802474174674118 0.02255354310302582 9 443 558
0.4785766912286509 0.9310619424809958 0.021101335234315344 9 444 585
0.4294954711836475 0.8504203980562091 0.023153317592941036 9 444 630
0.49446309120164555 0.9685212859961412 0.021905615369234965 9 445 567
0.5501626995003706 1.0847320266849132 0.020781580346106 9 448 508
0.5390594084728038 1.072857147119116 0.021037673289373338 9 449 516
0.44435662573218193 0.9124439513156362 0.023399058595577227 9 449 605
0.43210105438112445 0.9008566895175663 0.026932739620378676 9 449 614
0.527584365917259 1.0584954017368176 0.020663403530462032 9 450 525
0.5176689387624303 1.0457791181798768 0.022352277444043445 9 450 533
0.5067782535007948 1.0312810914639052 0.02401978812004435 9 450 542
0.46902458427396443 0.9724952333648357 0.024363814021210017 9 451 576
0.45135725446694397 0.938419346906338 0.023339769336076177 9 451 594
0.49551719884875656 1.0166933583615934 0.021022401732420537 9 452 551
0.4578626639736101 0.9580768278349778 0.02138845790407906 9 453 585
0.41391487307278774 0.8975492212725458 0.027469294740652295 9 453 623
0.40841582575161084 0.8749266596613108 0.02286662997178368 9 453 632
0.4814885127392756 1.006019722174162 0.02118756710801506 9 454 560
0.5058803116929853 1.058947036265974 0.022297236947772303 9 455 533
0.5241106802477773 1.11192540489614 0.022556383950590897 9 458 508
0.5163269626175746 1.0941216583509288 0.021088711532619042 9 458 517
0.4522418312280938 0.9842084872845177 0.022279327164972718 9 458 579
0.43466171018353483 0.9610489771791905 0.02513719055265562 9 458 594
0.4257417253364718 0.9447526532942774 0.02494179637528582 9 458 603
0.4152762328032714 0.9310078592572011 0.026658338806172077 9 458 612
0.48514485219016756 1.0562362487165062 0.02492721677130072 9 459 542
0.4562756983451577 1.0100288622620894 0.02428618915395475 9 460 569
0.40440466304894906 0.9170531238480422 0.023801875840304465 9 460 621
0.474705457694484 1.041284430927438 0.02142340066802606 9 461 551
0.3895781376643279 0.9101671122928747 0.026113725547727062 9 462 630
0.46038706966373333 1.0317493305180836 0.022439283558738143 9 463 560
0.496859073039032 1.0977527521752983 0.020630188702008168 9 464 523
0.4880066634143374 1.0815798845214428 0.02043627477434873 9 464 532
0.419269268639775 0.9756441916126868 0.0261743333034109 9 464 596
0.5087987934604558 1.1361524573753758 0.02228414716234617 9 466 505
0.3933804462072996 0.9395600969698825 0.025050548200905243 9 466 619
0.4959722251022002 1.124566227594429 0.024046241146452596 9 467 514
0.43106984822411376 1.0149073517390326 0.025941970706254702 9 467 578
0.42129536219502317 1.000615543617367 0.02705481468582205 9 467 587
0.40287119310341457 0.9705212381702653 0.027978185506467357 9 467 605
0.43829288829170365 1.032162730234385 0.022927579016858823 9 469 569
0.4550705017166212 1.0675127557898993 0.022714035123290066 9 470 550
0.37534001539758155 0.9372169840655817 0.02441358625665746 9 471 628
0.36377859260033163 0.9267684669594352 0.028180996291223837 9 471 637
0.4865166910728046 1.1343475009467818 0.02226044795578419 9 472 514
0.4404621972822773 1.0590981223508096 0.024610416826357007 9 472 559
0.4733089136589843 1.1237886108469193 0.02477692357766148 9 473 523
0.4647042813414264 1.1080684187656864 0.024588437264950747 9 473 532
0.41212041717857184 1.012000578269264 0.023436576465051928 9 473 587
0.4019484682068073 0.9987478763321673 0.025234019937654395 9 473 596
0.3813428026263397 0.9693288081036777 0.02559134950728037 9 474 615
0.3908976120995977 0.9861287030999681 0.023239044566745304 9 475 605
0.4461921984356534 1.095364435771513 0.02527718913730581 9 476 544
0.41289693753428125 1.0380839933466186 0.02590467414906139 9 476 578
