2.4426629619567097 0.9793387959151172 1.315086954639792 9 19 217
2.4734927378330367 0.9096061652789778 1.3234360142362718 9 19 229
2.488652279501588 1.0714950789102056 1.309843557688863 9 20 194
2.45584924676578 0.9554513385527481 1.313979791968383 9 20 221
2.435486841692757 1.038868065470945 1.2976226711047096 9 22 205
2.4846850661260307 0.8908597511607865 1.3129313258415745 9 22 232
2.4594673682757833 0.9786061822883845 1.3000288761880001 9 23 216
2.4593823545924964 1.035596875653552 1.292054495984249 9 24 204
2.445277220915118 1.0218072602949548 1.2914134956626173 9 24 208
2.475818804704385 0.8798386363973572 1.303941396662599 9 24 235
2.470755012101809 0.9748054370759036 1.2929419067136738 9 25 216
2.4615564749087318 0.9250543882792399 1.295140241957741 9 25 227
2.4796898543015495 0.9035493149755407 1.2897405627659984 9 27 230
2.4854088611851597 1.0930841569273626 1.2700286061583428 9 29 190
2.467942356412395 0.9438190743376493 1.1283237850440762 9 63 224
2.4716699741360997 1.010783856409184 1.121840137224438 9 64 210
2.5063439029110346 1.0374046169811586 1.1184217978355286 9 65 202
2.5170344601010495 1.0580215240390372 1.1138918360771546 9 66 197
2.480057368015527 0.9545460045403515 1.115274667040458 9 66 221
2.5023232335665075 1.0681098342853093 1.1039998927658583 9 68 196
2.459968897532575 1.0157359000971393 1.1035038351530693 9 68 210
2.4858347887401986 0.9626024903754353 1.106390318601608 9 68 219
2.4681937744923585 0.9446076100911711 1.1060677778063885 9 68 224
2.4550933292585166 0.8241404761932571 1.1090791096219077 9 68 249
2.462475676989486 0.7161712048162294 1.1127197723513211 9 68 269
2.47597976219795 0.69371417353342 1.1140664014759496 9 68 272
2.4656009421987037 0.7467000972346065 1.1073339401465647 9 69 263
2.4968462910010625 0.9089975579387359 1.0995025864638914 9 70 229
2.4640165397468317 0.8564273632959787 1.0994881572691457 9 70 242
2.4739313964553995 0.8111641353857764 1.1012507295867524 9 70 250
2.4695324246318893 0.7661246505125137 1.1023414402194984 9 70 259
2.461167432107377 0.7329508507715716 1.1029065522379917 9 70 266
2.4671074434125626 1.02820447900285 1.0902944687141396 9 71 207
2.462622836912327 1.0059544518297763 1.086301732860491 9 72 212
2.498401722082723 0.9784151380785748 1.0886142257118674 9 72 215
2.5030512110896628 0.922023333126891 1.0903491222788138 9 72 226
2.45253841913294 0.8514706004220605 1.0855309582869013 9 73 244
2.4637649175968384 0.8313981039313163 1.0865354658892028 9 73 247
2.4671704523243796 0.7832686926483694 1.0879483675451183 9 73 256
2.4738516863147844 1.0503892125695422 1.0767906809339274 9 74 202
2.4740261502932386 0.9925443145346218 1.0782763242387594 9 74 214
2.469664075655953 0.9746230418707141 1.0785557025465415 9 74 218
2.4893905448628564 0.8924173364396772 1.0814649085665815 9 74 233
2.4598598944221104 0.8435837565543742 1.0769544262147488 9 75 245
2.467521317886682 1.0146480692281008 1.0685963201111404 9 76 210
2.455515953362381 0.7573456433598411 1.0743020280313291 9 76 262
2.4599423238981726 0.723493291209895 1.0752820948246131 9 76 268
2.4585158282098747 0.6919775758892694 1.0759826389407445 9 76 274
2.46255513748404 1.0310186161097887 1.0636050404820272 9 77 207
2.483881589563679 0.9102274050280914 1.0671869372115523 9 77 230
2.4591859938535077 0.8696277697022088 1.0672180341949282 9 77 240
2.4618109021417975 0.8430495543629863 1.0679300693605747 9 77 245
2.4596402240787123 0.9348031331988631 1.0612395967087132 9 78 227
2.4421063417716184 0.7531422744739877 1.0646790577319893 9 78 264
2.4663793246545125 0.9962821594059228 1.0556546496379662 9 79 214
2.4915326794363857 0.8822258568053498 1.058968444106673 9 79 235
2.4665997204386905 0.8515769623069884 1.0587803691694926 9 79 243
2.444100800751267 0.7734621351175148 1.0550968538065795 9 80 260
2.446709396395075 0.7406767447918765 1.0558621293120776 9 80 266
2.443320370972169 0.6995991050670871 1.056603646702246 9 80 274
2.4720814120754206 1.047702687096398 1.0458982639282586 9 81 203
2.481501783718244 0.9666420865873986 1.0478090244640914 9 81 219
2.499794794006659 0.8843448330550268 1.050021733634713 9 81 234
2.487801475309189 0.8636202579799936 1.0500601649331966 9 81 239
2.4710210828397114 0.8242685899068534 1.0503204148102627 9 81 248
2.441764386996729 0.790280893741041 1.0500837945380024 9 81 257
2.4821262894204286 1.000942231662592 1.0426666241993559 9 82 212
2.4770529983470473 0.9487005755092737 1.0435147640993812 9 82 223
2.4444961278568282 0.9462683974089257 1.0425891332024424 9 82 226
2.4683756350415056 0.9171442567929726 1.0438594749192707 9 82 230
2.463310043342906 0.8070971653778929 1.0412024755762839 9 83 252
2.452611478664876 0.7699853178135945 1.0415781258071948 9 83 260
2.4668732297680602 0.7263381762289645 1.0427841317285595 9 83 267
2.489628632114237 1.0326983754262535 1.0333469397845483 9 84 205
2.4880749325577134 0.9845033308376347 1.0341493627213199 9 84 215
2.4705230310794253 0.9065947425988226 1.0350392948909257 9 84 232
2.4743015178243826 1.0621262367192756 1.02798822229752 9 85 200
2.4939879391778876 1.0217028825908165 1.029169442347018 9 85 207
2.473026819949101 0.960667633588364 1.0296513831796497 9 85 221
2.460773739420538 0.7823385819714754 1.0323175244534564 9 85 257
2.447619391293756 0.714115155613054 1.0331200909007738 9 85 271
2.4630404113260527 0.9249082805962276 1.025465993998199 9 86 229
2.512879189198156 1.0008083243877466 1.0209304484747967 9 87 210
2.4695727854547833 0.9425040717533688 1.020819639342851 9 87 225
2.482488436541091 0.8718423162640969 1.0221821521467438 9 87 238
2.472997480891921 0.7665938850625795 1.0235540732685298 9 87 259
2.4765097096364603 0.7437354292341829 1.0239795945870376 9 87 263
2.480350343040743 0.988087145889598 1.0158712595536743 9 88 215
2.4542022742123137 0.8272389498454056 1.0176078727913747 9 88 249
2.466068932326543 0.7961087060691379 1.0183077183632405 9 88 254
2.470977036373819 0.856370752492817 1.0129482257314653 9 89 242
2.4585078642082445 0.8410178237566155 1.0129046865477376 9 89 246
2.4645016235094683 0.7811774371140714 1.0138317580849132 9 89 257
2.4911418068485927 0.7157222594445096 1.0152492946760274 9 89 267
2.475272654972584 0.7068819834610696 1.0150496597543848 9 89 270
2.463383920944318 1.0043742238590276 1.0063237246111292 9 90 213
2.464926165898493 0.8997202433546898 1.0076785016334244 9 90 234
2.482799789876772 0.7572450074369426 1.009817691376497 9 90 260
2.481695191575217 0.9783368723325623 1.0024687378491164 9 91 217
2.475803324077477 0.9557779364578641 1.0026344044857085 9 91 222
2.4603971079798277 0.9167776188529464 1.0028305646609832 9 91 231
2.4776791658560757 0.8745824763717116 0.9990205292925587 9 92 238
2.4646520541797 0.8130533121783792 0.9948488452609698 9 93 251
2.4669978333750513 0.7593869131435764 0.9954321016910188 9 93 261
2.47956463283791 1.0393299443912367 0.9657856397720421 9 99 205
2.4781865151885207 1.0205998523851567 0.9613580030429145 9 100 209
2.468996084092562 0.9452292031060074 0.9570854131307616 9 101 225
2.4664921186117996 1.0396337870589616 0.9522322148541438 9 102 206
2.464965075385547 1.0061819029751549 0.9523263672418901 9 102 213
2.462866939614117 0.7624147112668829 0.948308960388218 9 103 261
2.46509455051657 0.9819870347943175 0.9433067617467837 9 104 218
2.4650520184805247 0.830021646538649 0.9434981335386949 9 104 248
2.472311422827997 1.0479227405167681 0.9387098592466755 9 105 204
2.4502852452397064 0.8826503980235212 0.9388363083100002 9 105 239
2.47363821540696 1.0380080685325923 0.9341909630964773 9 106 206
2.47691057309925 0.9780315785279263 0.9341554517413238 9 106 218
2.489980654902612 0.943188998618187 0.9340916726040409 9 106 224
2.445008130498513 0.838813199502839 0.9342256155684667 9 106 248
2.449206530823481 0.8214565769201989 0.9342027777776046 9 106 251
2.4749885106470613 0.7573059582896942 0.9340787136147387 9 106 261
2.425709895210322 0.7049673502241376 0.9342491342576323 9 106 275
2.446450171911224 0.8845228060045247 0.929626476030449 9 107 239
2.463657375690336 0.9082577013789805 0.9249445845417872 9 108 233
2.424507329855349 0.8631490384247997 0.9251156682425767 9 108 245
2.4628280157907905 0.7469727979771688 0.9246236699536519 9 108 264
2.44156566732583 0.7245773307530716 0.9247208422261539 9 108 270
2.4735100074436884 1.0094274571951973 0.9205293809282912 9 109 212
2.4817051475252847 0.951888850879562 0.9202990184569314 9 109 223
2.457485426107112 0.8856131197662931 0.9156704609941013 9 110 238
2.428257060910392 0.8310104705434904 0.9157490901087834 9 110 251
2.440938797122148 0.8099215563546376 0.9155506455488706 9 110 254
2.4541216589140022 0.7671727500018564 0.9152679326827852 9 110 261
2.4555062277145807 0.9069172895145159 0.911147621161791 9 111 234
2.4517289035731555 0.8676384138342863 0.9110125597652544 9 111 242
2.4542493918957415 0.7512224516169337 0.9104618115863132 9 111 264
2.44971944704691 0.764069396570719 0.9058361774425083 9 112 262
2.4705872430058586 1.060311380940248 0.8935758917532224 9 115 202
2.4889424025093194 1.0350693147855397 0.8839097336391655 9 117 206
2.4495098159983217 1.009814522027598 0.8844413210153407 9 117 214
2.4639294919212444 0.8427688913481972 0.8825812186463592 9 117 246
2.4632944272225 0.8273764556814376 0.8824481770100502 9 117 249
2.4614543898347736 0.961166846444538 0.8791393795347995 9 118 223
1.0494646103762852 0.17677314064582816 0.9006786501050534 9 118 598
1.0370331764871914 0.17366357467781546 0.9009073032178634 9 118 602
2.472405757708037 1.0557384777212642 0.8753318787034151 9 119 203
2.4511965032480973 0.915020761920547 0.8742440284216946 9 119 233
2.458778004655657 0.8138507672474848 0.8729506033967349 9 119 252
2.4573259935968803 0.7827735863878307 0.8726379694273756 9 119 258
1.0833406395694323 0.17563132733860387 0.896666963997615 9 119 589
2.4472781132580006 1.0063175274495808 0.8707873289139907 9 120 215
2.4499842897675697 0.9905963513480889 0.8705351954077934 9 120 218
2.442421532018823 0.9387724792517418 0.870096850184983 9 120 229
2.45935691250657 0.886447081621625 0.8690687351618379 9 120 238
2.4684865995449052 0.8308318623500333 0.8681873606681119 9 120 248
2.4737241666544714 1.0460228646894556 0.866064051701921 9 121 205
2.4563012682184664 0.7834757895610813 0.863152531991128 9 121 258
1.0268837647969071 0.20760985510078567 0.891914225196823 9 121 598
2.4372541848407847 0.926061273752548 0.8608361015166648 9 122 232
2.4410968882360153 0.8634047526074964 0.8598815646218938 9 122 244
2.441056595976198 0.7797709404695441 0.8587454769866286 9 122 260
2.442599362377523 0.7416740043155468 0.8581862835419719 9 122 267
1.0395304376741654 0.20447866569311524 0.8883440577666226 9 122 595
2.4550524565289322 0.9039971898996677 0.8553954255518138 9 123 235
2.4428636950805505 0.8055156731177597 0.8543174444697358 9 123 255
1.0985847063910215 0.21025423007561272 0.8835525726225757 9 123 578
1.0819563425372745 0.2115920108198721 0.8807689099129765 9 124 582
1.0408102140838287 0.2102297607026753 0.8723113986534512 9 127 593
1.0865566545545886 0.2135367479316086 0.8675333479775167 9 128 580
1.2444437895263931 0.21962723405082762 0.858555538727998 9 129 540
2.428415821781109 0.4735273775491271 0.8099110686208928 9 131 316
2.378450746745011 0.4727909205549854 0.8069288066525887 9 132 321
1.1912973071762059 0.24439807143285242 0.8335806935226036 9 137 547
1.1083550999317193 0.2469526085975562 0.8376595758306495 9 137 567
2.405491905706545 0.4748011238559773 0.7758595348644088 9 138 318
1.2867712290518307 0.2547040323576215 0.8220914707418979 9 139 523
1.1375988173158653 0.2439217838782739 0.8294412655162864 9 139 560
1.1231074673566197 0.24722372856919073 0.8302762707172533 9 139 563
1.3503787947498063 0.2509491121845504 0.8150549137259819 9 140 510
2.369653992334237 0.6973155576060477 0.7645275706990189 9 142 282
1.4485894581890493 0.2623442801095228 0.8025858543521868 9 142 488
1.3481634380070893 0.2525969246592583 0.8078790880096731 9 142 510
1.2802303132667117 0.2504670172948318 0.8115951769252256 9 142 525
2.403796401192177 0.48164709709394415 0.7510595457244951 9 143 317
1.1401891255038856 0.23856118343999522 0.8156450478884936 9 143 560
2.356974940618572 0.26772673891281573 0.7419217210745997 9 144 357
1.2070437725466245 0.2425290815593404 0.8084709442479626 9 144 543
1.3859625733381493 0.26856139688048675 0.7951030967709355 9 145 499
2.2198282025937734 0.7764939515578921 0.7572310446508134 9 146 281
1.5536069217640849 0.26928095965592114 0.7810924013669305 9 146 467
1.3460524820385058 0.2639294414615043 0.7936764223550093 9 146 508
1.3352071518287787 0.2653774246438916 0.7943922565916169 9 146 510
1.3228161951619315 0.25809785487361525 0.7949087175348772 9 146 514
1.2533522988734918 0.2591969620578891 0.7992178126116379 9 146 529
1.2161403708906433 0.2514228878682099 0.8012440760552346 9 146 539
1.1834768913468747 0.2393956697238313 0.8028471285499574 9 146 549
1.173884544004955 0.24099008201573424 0.8034908444549861 9 146 551
2.3893812174067928 0.4722325858576957 0.7315144866724678 9 147 320
1.4322882858438657 0.27743954469960697 0.7850405544768913 9 147 488
1.3720304277455466 0.27219941319556185 0.7886534233308562 9 147 501
1.3549241872441833 0.2749285489941027 0.7898248860373136 9 147 504
1.283015128855927 0.2556093138183728 0.7936844654931523 9 147 523
2.21252687690653 0.7802198301392989 0.7487928702501798 9 148 281
1.5258092596687933 0.27943963643827585 0.7752947162434833 9 148 470
1.4143683475751836 0.27447593381253 0.7822989601412057 9 148 492
1.1537928477442099 0.24984444771178604 0.7982150606717049 9 148 554
1.4687366337212522 0.2713846097978396 0.77483370908249 9 149 482
1.316172127302463 0.2537617198174469 0.7842478212958237 9 149 516
1.2277091055504386 0.2622147080830801 0.7903839005092762 9 149 534
1.3945545995257782 0.2677024131465702 0.7720852922730119 9 151 497
1.3734935426093668 0.27966547197845726 0.7739893505359532 9 151 499
1.351740733511233 0.26625502801240675 0.7749773493798376 9 151 506
1.2666881472865337 0.26233890950536365 0.7806830839117569 9 151 525
1.3125345418912253 0.256629443647475 0.7736655745392054 9 152 516
1.2353350187594851 0.26219867229938054 0.7793092455407451 9 152 532
1.8334199817574857 0.2725947277932632 0.7332646668480902 9 153 421
1.2301944929353716 0.2469144048832379 0.7755422291177045 9 153 536
1.748513946775406 0.2708209713276091 0.7350077861030028 9 154 434
1.7214859730877272 0.26637840257627365 0.7368074488353393 9 154 439
1.5959857972607696 0.2809462264796059 0.746590548549583 9 154 457
1.4263978972161153 0.27567876876963915 0.7587989693653551 9 154 489
2.2311565640460813 0.7869813085471529 0.7160222627566641 9 155 278
2.2383370294645215 0.7732376016120828 0.7149169168767009 9 155 280
1.5463081460334664 0.2734395557095357 0.7459412315031506 9 155 467
1.5243516328396314 0.2676851306677803 0.7473436972069202 9 155 472
1.3750275135479448 0.27116730670470646 0.7586455389362906 9 155 500
1.342643182304459 0.25342853429135603 0.7603311910298706 9 155 510
1.254331698994081 0.26980519802651504 0.7676077399188881 9 155 526
1.1821281390591365 0.257689757410245 0.7725014780021084 9 155 545
1.4079891366206583 0.26753516742182315 0.7522442490772299 9 156 494
1.2284574552330985 0.2528990487450651 0.7653056903319037 9 156 535
1.531205592394628 0.27116961615549906 0.739039285899741 9 157 470
1.4216629639747453 0.26881398142190194 0.7474462290391919 9 157 491
1.7686022019969456 0.26934272688171434 0.7161960839702475 9 158 431
1.5061142305338506 0.2738706429145932 0.737170975887858 9 158 474
1.4940298214167984 0.27509029201146973 0.7381810586072826 9 158 476
1.4672795455675245 0.2750783929638838 0.7402978167729368 9 158 481
1.801282352394491 0.2695899053363251 0.7092434902630109 9 159 426
1.5553058257008803 0.2743485919714981 0.7292893884261505 9 159 465
1.3708077636928162 0.2688523195806023 0.7439189025450486 9 159 501
1.2507433662291305 0.2722672812117115 0.7537525062811135 9 159 526
1.6968305035321967 0.2698207998238391 0.713450041692995 9 160 442
1.391724119965119 0.2565521304762104 0.7378958550873743 9 160 499
1.2867768682333414 0.2716332374483894 0.7435813176041257 9 161 518
1.2743207021724854 0.2701773030135022 0.7445547864881088 9 161 521
1.7333470132245723 0.2706674224418204 0.7019223663843304 9 162 436
1.3618117346080445 0.2823533591992069 0.7303547771851028 9 163 500
1.3507207096478129 0.27321391533881845 0.7308739143972771 9 163 504
1.7365681179972319 0.28424023956263156 0.6937233661464435 9 164 433
1.6755623900066305 0.27102592741859377 0.698445482619752 9 164 445
1.4123937137948213 0.28129786933282563 0.7221187484281314 9 164 490
1.3332613017774537 0.2708358466659877 0.7285718308973201 9 164 508
1.3142833957172475 0.27612628110651705 0.7305023437312742 9 164 511
1.7109117117935237 0.2839798302991099 0.6917180741140303 9 165 437
1.6946774350308167 0.2759631820940187 0.6927709756529332 9 165 441
1.603165448278986 0.27602283547863116 0.6968651673652608 9 166 456
1.5601672649272496 0.28383798867278087 0.7011755869001852 9 166 462
1.4286925269274007 0.2849715499825911 0.713198820590714 9 166 486
1.3463293240483785 0.27683680390917775 0.7202814130719064 9 166 504
1.5819105585636417 0.27924286107517293 0.6948930092931693 9 167 459
1.507107561662181 0.2861208219808167 0.7021676187214463 9 167 471
1.4797573512193016 0.2809018594977757 0.7044277936862224 9 167 477
1.8261133735632207 0.2808632921626426 0.6679525276553593 9 168 420
1.419654036048337 0.2829300337966112 0.7062634223820965 9 168 488
1.373687043726039 0.28354768793252916 0.7106162191653724 9 168 497
1.3464050879271923 0.2861642448844943 0.7095980812105831 9 169 502
1.664970541770706 0.28448258844824403 0.6748927853913811 9 170 444
1.477376814496334 0.28225820897157705 0.6929630420889128 9 170 477
1.3352767362018756 0.2763908142640399 0.7027065172807172 9 171 506
1.8862092287067806 0.2650928187146626 0.643283983260353 9 172 414
1.6609935288559496 0.28750940554207993 0.6670509134426085 9 172 444
1.2819132261138715 0.2778148202792501 0.704399714601699 9 172 517
1.7704856623753236 0.280938655109644 0.651368210305562 9 173 428
1.4742660566121968 0.28435027665667545 0.681614202633841 9 173 477
1.2932091807074548 0.2750589549707243 0.699454488662159 9 173 515
1.7048245653704752 0.28130434035145946 0.6537751625317779 9 174 438
1.6392589780798268 0.28972752796289303 0.6568379947141363 9 175 447
1.5766226063117248 0.28725906821109537 0.663235474689519 9 175 458
1.4113473062291615 0.2890293431918727 0.6806014957086164 9 175 488
1.6613875231313115 0.2860168789264219 0.6500963916013818 9 176 444
1.5570057440476364 0.2891665368751313 0.6613423345970346 9 176 461
1.5198878880471125 0.28686537863940575 0.6651379510357609 9 176 468
1.3529249795173943 0.2816145589825927 0.682514565214217 9 176 501
1.187734612084813 0.2774320439679028 0.6997669052248798 9 176 538
1.59028690965508 0.28474868841238576 0.653442898538505 9 177 456
1.4280741404984871 0.2816101396729138 0.6706824387161514 9 177 486
1.4054462944485209 0.2784013577692983 0.6729201103761854 9 177 491
1.3507016205885014 0.28324902111208883 0.6753387894042221 9 178 501
1.336998646244536 0.28721203679109353 0.6733394191252648 9 179 503
0.9437752273388971 0.2669771408274415 0.5869287446633191 9 219 599
0.7473463976109123 1.448512509961628 0.7319308837035952 9 221 306
0.8750092980393456 0.26277198310062966 0.5919822562399792 9 221 620
0.7766513795434212 1.4608607048513222 0.7260986172641215 9 222 293
0.9402171261508376 0.2652947009823421 0.5775733926956195 9 222 600
0.7586721635149062 1.459606739180371 0.7195566517486819 9 227 298
0.947889206323441 0.26645667075787083 0.5598931172851062 9 227 597
0.7900274461798914 1.4607087884136993 0.7060136994810051 9 231 290
1.0224045770930807 0.26661046841967595 0.5325268419622515 9 231 576
0.8344277949878696 0.25974395882127554 0.5675509326413785 9 231 632
0.845755482185834 0.2612409090681804 0.5624051752353453 9 232 628
1.0114236469365334 0.269825990239964 0.5247424138646658 9 234 578
0.8729058955354161 0.2681539572148752 0.5515658213762934 9 234 618
0.7596604323684644 1.4613789485326696 0.7022088295927108 9 236 297
0.7486329453745255 1.4501098715221943 0.703122523087552 9 236 305
1.0387165991741243 0.26751826966615866 0.512245810773958 9 236 571
0.9671670746710417 0.2587328166553051 0.5254310209008759 9 236 592
0.8391434401800348 0.2681161618715775 0.5455549672610083 9 238 628
0.9670045350975829 0.25717663627456 0.5151989792912316 9 239 592
0.9073919163821251 0.26304343937687125 0.527969927860785 9 239 608
0.9090158896802374 0.2586286564995923 0.5172955839394073 9 242 608
0.8565485309692751 0.26311464651233996 0.5287185486127656 9 242 623
1.9502608968672082 1.5353110890494992 0.44838089902758493 9 243 129
1.0080155523680692 0.2642528826474342 0.4939730482137499 9 243 579
1.9648174887028245 1.6029079619583313 0.449666882424126 9 244 109
0.9662127463734504 0.27117733984312076 0.5001774590575512 9 244 589
1.0455119720113575 0.2584494746667878 0.47842905107124695 9 245 570
0.8465220105978923 0.2617517686482975 0.5210852454720711 9 245 626
1.005539658476161 0.2607486733297102 0.48375257848414094 9 246 580
0.9931417780373295 0.2625885356394808 0.48662938155134 9 246 583
0.8979240657789329 0.2628352276939596 0.5070305152782892 9 246 610
0.8366416344287093 0.26162477654383665 0.5199937697810879 9 246 629
1.8771687238322916 1.51269098270653 0.4462742264390561 9 247 140
0.8265569607639287 0.251442774309913 0.5177393464025994 9 247 634
0.8631010638794576 0.2695310689284449 0.5088712596946118 9 248 619
0.9754805380453797 0.25993190044832826 0.4798786049645085 9 249 588
0.9570822811898232 0.2552465621217508 0.4833181689640802 9 249 594
1.8055022677298564 1.5254332748056703 0.4526062997187486 9 250 141
0.8588616856815003 0.2592945455978415 0.5020825498229059 9 250 622
0.9945155721101822 0.26300154122193153 0.46922567065730136 9 251 582
0.9159921601473062 0.2685397094140287 0.4873505858229105 9 251 603
0.9413286123057083 0.25579474200901076 0.4767531598953136 9 252 598
0.8520440441454189 0.25717877523144006 0.49043835810924463 9 254 624
0.8996143681788475 0.2597099815475459 0.47668179148605705 9 255 609
0.8850209234987056 0.2615322161410434 0.4802505777053352 9 255 613
0.8220907828001818 0.25272029488957903 0.49028302321981543 9 256 634
0.9282283955246029 0.26194482207131964 0.4637441263779026 9 257 600
0.9165644727945086 0.2679342289456321 0.46057608371829883 9 259 602
0.8549032530991965 0.25972122164463896 0.47394720736258955 9 259 622
0.8430400841217236 0.25271888788628294 0.4757933462776108 9 259 627
0.887926167641617 0.26427034668511484 0.46351519111618394 9 260 611
0.8484243141191405 0.268289346557373 0.4669352468922642 9 262 622
1.274229466507697 1.5134494352056853 0.45995206288152973 9 289 192
1.1575836909806567 1.5165995528566532 0.46981276002657424 9 298 205
1.1256472109989564 1.5016510048969638 0.4715701241918309 9 300 215
1.1031120224406556 1.5021247572780754 0.4707213392342354 9 303 218
1.0981446680936169 1.5320943829519345 0.4673210671341246 9 307 207
1.1183675202708017 1.5851599951640554 0.46797361612219546 9 308 183
1.079549553626534 1.5210831846098927 0.4661059067672869 9 309 214
1.0837310401548543 1.5739222026796713 0.46938086402445245 9 311 192
0.9386597669445313 0.6822192132458391 0.30844027941226426 9 325 502
0.8864370993064932 0.6876150775201717 0.3274466993808135 9 325 515
0.8450061580802566 0.6872808657470777 0.3416163833613749 9 325 527
0.8763893358222481 0.6865814800556744 0.32765006374710137 9 326 518
0.7052332346998145 0.7019776697253934 0.38979713174656694 9 326 568
0.6358285256225227 0.6945116439104182 0.4122841137690574 9 326 595
0.9772989648585506 0.6899078074861817 0.2902489288367288 9 327 490
0.652145652428129 0.6976228786379801 0.40460963342821743 9 327 588
0.8991921165415497 0.679946324273091 0.3122736567059564 9 328 513
0.8092778304835664 0.6887876471851548 0.3424569520804509 9 329 537
1.1034567050599553 0.6928051409800793 0.2333095266979861 9 331 459
0.8422344264020587 0.6884404828807664 0.32484510100800634 9 331 527
0.7005288809211144 0.694207913068376 0.3761510551639896 9 331 571
0.6718768386486234 0.6989391282632178 0.38724814512943695 9 331 580
1.0473206727132514 0.6832997646508951 0.24788605644269723 9 332 474
0.9769029304977479 0.6887510407624087 0.27403158080296164 9 332 490
0.6376162608820158 0.6969982224040703 0.39633239433328993 9 332 593
0.9664400750044599 0.6870260640189225 0.2741824586779724 9 333 493
0.7320454739140436 0.6819159963809693 0.3568651716995406 9 333 563
1.1838710338730252 0.6998846004197807 0.1955681120085625 9 334 440
0.9300146396041744 0.6889929878475478 0.28444154186489456 9 334 502
0.9117445391671242 0.6929141648448316 0.29180634429282093 9 334 506
1.1607378434904125 0.6988088287396961 0.2001064500752885 9 335 445
0.8705524278249601 0.6903087757286037 0.30299957502222863 9 335 518
0.7403792972966419 0.6819646369281922 0.3482187498408571 9 335 560
1.2061344052772074 0.706003273446552 0.18160601423160538 9 336 434
1.1151861447862776 0.6888241117691287 0.2109904849632741 9 336 457
1.07129973912671 0.6839113817493885 0.22587159546387459 9 336 468
1.0377992872064832 0.6876138835041066 0.23877993574791856 9 336 475
1.0051582772765624 0.6872020288433534 0.2505217450790995 9 336 483
0.9681113554291008 0.6885087371853198 0.2642172084688521 9 336 492
0.7867739224204624 0.6775137791808732 0.32763932752258584 9 336 546
0.8926283862917685 0.6844693151046948 0.28762456927881686 9 337 513
0.6516077600001664 0.6896096374100185 0.37644436907118606 9 337 589
1.0600185708342464 0.6860236972853311 0.2236164192626522 9 338 470
0.7595097674292881 0.6795617967620107 0.33217966296327384 9 338 554
0.7291008820770339 0.6754998155544434 0.342450233656139 9 338 565
1.1523570044572367 0.6923444241241135 0.18761985373273005 9 339 448
1.1004923478155475 0.6847377809310402 0.20507616763313607 9 339 461
1.3003979235278407 0.7000300337808121 0.1310387918110788 9 340 417
0.8552485271980053 0.6816755225067359 0.2915052022660871 9 340 524
0.8459221745690637 0.6804648702505649 0.2946921680690171 9 340 527
0.7083656531602469 0.6831182726496743 0.34604155850564866 9 340 570
0.693453049558299 0.6797074341017351 0.35082501214817363 9 340 576
0.814529129831737 0.6815421977908778 0.3035274668335579 9 341 536
1.4978439053688781 0.6442665701367736 0.03793371699184456 9 342 395
1.1612185892236684 0.7011005605493972 0.17552863162343746 9 342 444
1.0715682254528893 0.6951112156432417 0.20765643989051297 9 342 465
0.9099653934091803 0.7006833627014077 0.2690692649524302 9 342 504
0.6273964622921608 0.683384050340744 0.3706703676542029 9 342 599
1.3022056608360582 0.702506882307232 0.11948252348224386 9 343 416
0.6868082813129088 0.6755532389505721 0.34408157816808327 9 343 579
1.380706445527987 0.6649656919826625 0.07804638036519251 9 344 410
0.7980040394395684 0.684762589461936 0.30147137026988857 9 344 540
1.2631679392713793 0.7034160240651295 0.12680357603066894 9 345 423
1.230868014689197 0.7089542581532953 0.1402078717617924 9 345 428
1.2123133050582564 0.7029202143497462 0.14591013460060265 9 345 433
1.103086615648119 0.6982345475296727 0.18616266621204502 9 345 457
1.089729965620683 0.6937459420024863 0.19023602147378904 9 345 461
1.02046238178164 0.6856017805653014 0.2146413138771761 9 345 479
1.0091005562085291 0.6845602517153897 0.21870827693873274 9 345 482
1.000669755048301 0.6848652428396014 0.22195974639477445 9 345 484
0.980589438844935 0.6892091650793724 0.23048827698634633 9 345 488
0.8393009219786292 0.6867550685754418 0.28333828796695837 9 345 527
1.4789080655742903 0.6485501930647202 0.029220854849631994 9 346 397
0.8860772291370398 0.6889851422111213 0.2630360343355742 9 346 513
0.7704348233534565 0.6824255014799627 0.30549945007264157 9 346 549
0.6603419015573118 0.6761635274598592 0.345921389665123 9 346 588
1.4609378055619093 0.6527389099868963 0.032808675774944285 9 347 399
1.3487808565291122 0.65769126568199 0.07665519748787764 9 347 417
1.243642464013965 0.7063509642019374 0.12738848742608322 9 347 426
1.1971318562082962 0.6891379162552722 0.14135589718116748 9 347 439
1.0508797709217008 0.6927587297538527 0.1979108178564426 9 347 470
1.0391403741933427 0.6873333728281203 0.20119977142409207 9 347 474
1.0267881088143196 0.6827068596889923 0.2048971785291509 9 347 478
0.944034800099155 0.6901721331442499 0.23808254075584867 9 347 497
0.7455955671887127 0.6779161097489159 0.31106156299796317 9 347 558
1.1460535196241224 0.6915769991518568 0.15779954023619924 9 348 449
0.9099233995157507 0.6901757371700543 0.2479312643070135 9 348 506
0.8759009151083561 0.6833742711068003 0.25946723512913394 9 348 517
0.7837930179300734 0.6764665811150108 0.29322703302160424 9 348 546
0.6776797564046677 0.6824929696695676 0.3351938093847401 9 348 580
0.5501634444706831 0.658961681516967 0.3788615700162363 9 348 635
1.4641863985880814 0.6693571313218971 0.026927164934813508 9 349 395
1.4246049241325072 0.6473594654907153 0.03729875191057541 9 349 406
1.2979302026688602 0.6771644243791757 0.09261625891468261 9 349 422
1.2320505523188638 0.702521842714571 0.12356152266741893 9 349 429
0.724991335296602 0.6763544958140095 0.3128695135778887 9 349 565
1.51151631814358 0.7584964601532942 0.0242615404774158 9 350 369
1.445801204613306 0.6690573309711727 0.02982125412504799 9 350 398
1.4045445229472906 0.6441443850148962 0.04024019003632495 9 350 410
0.8273764681058993 0.6912537198044562 0.2737482569223473 9 350 529
0.604930418360607 0.6778990370373639 0.356755418386004 9 350 608
1.4774828467721566 0.7404126449967989 0.029303475893452946 9 351 378
1.3949042274742829 0.6422211212062785 0.03948387572799672 9 351 412
1.1992130420055673 0.6953362915600219 0.1272865551588207 9 351 437
0.8505304261976829 0.691770445816194 0.2618529151671354 9 351 522
0.753036857474814 0.6827762218188853 0.2976966249861115 9 351 554
0.6594835392276551 0.6750278663560678 0.33228828475606986 9 351 588
0.6389061014610367 0.6691395850295221 0.3389646645467148 9 351 597
1.3607621920057553 0.6368716466976201 0.04754110049071947 9 352 419
1.1590919350241626 0.696168023927699 0.13945170202588453 9 352 445
0.9611976488068361 0.6822860040513707 0.21351217717783966 9 352 494
1.3910334109349907 0.6353239701454587 0.03132801220985404 9 353 414
0.8083973207699171 0.6845983262596387 0.27061208411837345 9 353 536
1.420643150047177 0.6882401811962506 0.027562171570494565 9 354 398
1.3555154746664144 0.6312576850377289 0.04031698335374334 9 354 421
1.1037740780453327 0.690719790017031 0.15278424386603795 9 354 458
1.0592907458006648 0.6953382685892757 0.1713277378073541 9 354 467
1.0264204900464002 0.6940971380540848 0.18397923401630178 9 354 475
1.0121375092252345 0.6916394719060781 0.1890434391836049 9 354 479
1.0037005223949214 0.6918759929500733 0.19241611581284168 9 354 481
0.9752658443720166 0.6964473168202425 0.20463512498982117 9 354 487
0.8399588037390477 0.6867227831873275 0.25567144417246745 9 354 526
0.6434486435677841 0.673096409050006 0.32990509695469417 9 354 594
1.4446130281438392 0.7406662193191056 0.025913788493888812 9 355 383
1.438863588312211 0.7214755660793242 0.023832826719449862 9 355 388
1.4049798617631415 0.6573706318974226 0.022681732288221346 9 355 407
1.392308727777121 0.6484328389240461 0.025661534967698962 9 355 411
1.3708777781783517 0.6373160503805781 0.03160860692804646 9 355 417
1.271745142886747 0.6566835013754593 0.07517474387513534 9 355 431
0.8581973211530269 0.6936389204050206 0.24697417901035545 9 355 519
0.7898772648424578 0.6866508083215572 0.2723863768075767 9 355 541
1.2283714860039776 0.6722033983853712 0.09208176232727672 9 356 436
1.1962248869543723 0.6832668170360827 0.10736137058220852 9 356 440
1.079335325843599 0.6922210074770601 0.15579496475908128 9 356 463
1.0693278765349032 0.6934315778646312 0.16004273465909113 9 356 465
1.0471506418186654 0.6939666227143086 0.16896679374499768 9 356 470
0.9687828395169398 0.6899215189860795 0.19914941998572333 9 356 490
0.9186222679513476 0.690210156963555 0.21912394398464952 9 356 503
0.6641930555808581 0.6779863024864572 0.3173220742669587 9 356 585
0.5490953689839853 0.6604313332530558 0.3590048333580844 9 356 634
1.454810781413932 0.7932233613870245 0.025751421175890465 9 357 370
1.4018695050479384 0.7072890040274828 0.02719083597693972 9 357 397
1.098115910066161 0.6910267113230706 0.14455890702176477 9 357 459
1.0359519406102462 0.6964294967544631 0.17057658011041865 9 357 472
0.9084265161064917 0.6887629618590712 0.21965940883433765 9 357 506
0.8811502632590409 0.68231963937406 0.22905842700631318 9 357 515
0.7803492079732446 0.685691466036507 0.2700137761908815 9 357 544
0.7214483591967717 0.6819364981833171 0.29263495596336486 9 357 564
0.681801656944665 0.6763114925857172 0.3071526441766048 9 357 579
0.5851418085054567 0.6775916071962809 0.34597845649337455 9 357 615
1.3883980779588947 0.6894376986949369 0.024454935557242985 9 358 403
1.3729696342298767 0.6590799589664948 0.02365456209992578 9 358 412
1.3103721269158446 0.6359533938130513 0.04340224906708556 9 358 428
1.1434939389035073 0.6914536671231009 0.12297520447602905 9 358 449
1.134050234469807 0.6825299804963398 0.12470524226762891 9 358 453
0.5633994690138471 0.6762777385184684 0.3517503872658725 9 358 624
0.84188373836605 0.6781502427547181 0.2375972144785916 9 359 527
0.8225404330007358 0.6853796020727505 0.24704482055498445 9 359 531
0.6729712874835814 0.6800915027425081 0.305971034057021 9 359 581
0.6473957683043414 0.6728559048325993 0.3145854322829422 9 359 592
1.0864887410836708 0.6883936235797785 0.13809628596032097 9 360 462
0.6994187515557226 0.6826581613231582 0.2930974556324776 9 360 571
1.3610441372545505 0.724902194854059 0.031725497213067166 9 361 400
1.3189224387133867 0.6373449190968203 0.02842062487674024 9 361 426
1.3002565485350055 0.6346311894198182 0.0353601312805043 9 361 430
0.9250481820500092 0.6897243226942806 0.2003872764129787 9 361 501
1.4132860984497566 0.8131804847972874 0.02713989228770486 9 362 372
0.8214517083152726 0.6855723498206381 0.23839614552240207 9 362 531
1.3679433454781624 0.7697297938189989 0.031527403043131286 9 363 389
1.3198408436518199 0.6552477075625589 0.02431456391742326 9 363 422
1.2457645757599167 0.6453062356367005 0.052286458544624104 9 363 438
1.0289700060740596 0.6931281052991063 0.15221890798443594 9 363 474
0.8887575418289759 0.6925003787298836 0.20943742462321713 9 363 510
0.6785010060713998 0.6741411381750493 0.2911481382444978 9 363 580
1.386286903837745 0.792046024484609 0.025330498507825983 9 364 381
1.3056663808514692 0.6435130607824653 0.023413609274226976 9 364 427
1.229657204860891 0.6504637274648368 0.05628488174090984 9 364 440
1.1662848359287157 0.6681872303772451 0.08650542758496749 9 364 449
0.6117722592167771 0.6762064703193009 0.31624110825908525 9 364 604
1.0499494440739512 0.6972825241929337 0.13772736769270622 9 365 468
0.9467514258127037 0.6940530438536039 0.17954637221554837 9 365 494
0.8541091481486838 0.6906324525173821 0.21696431409862305 9 365 520
0.5522126995752544 0.6665983571132519 0.3358458306890164 9 365 630
1.389218470861621 0.8299629285700469 0.02525957283782876 9 366 372
1.2975433932924112 0.6549663800534404 0.02160768876262087 9 366 426
1.114896507833668 0.6764974525544023 0.10242059390787439 9 366 458
0.9088042104005787 0.6851493359835517 0.18988460114647665 9 366 506
0.7618542627921459 0.6854600424959509 0.25085498886641666 9 366 549
0.7352966724323965 0.6837840723594866 0.2614617105912366 9 366 558
0.7022165946860934 0.6800490440960867 0.274281393871767 9 366 570
0.5869757747075874 0.6780411488707396 0.3215596983513299 9 366 613
1.3866654565775636 0.8493238356866828 0.027037754628007393 9 367 368
1.311213813431244 0.7226254289966825 0.028159638119630293 9 367 409
1.3143890239849392 0.6968063152352333 0.02066803086590696 9 367 414
0.8740137397334933 0.6871769877862095 0.20163396894938967 9 367 515
0.6391985174394559 0.6773425998956011 0.2970047652690735 9 367 593
0.5696407888763166 0.6731623708947312 0.3249530140681559 9 367 621
1.2326764491849342 0.6419560181378943 0.03773511181566691 9 368 441
1.2103100321060616 0.6345988917006409 0.0453168287793444 9 368 447
1.0015332674259443 0.6898347326652132 0.14582553541747023 9 368 481
1.2548000442641831 0.6450269173045899 0.025356511124131176 9 369 436
1.2211057240545609 0.6383204242985703 0.037881072116090486 9 369 444
1.1522277911868752 0.6388937910300596 0.06692616457801503 9 369 458
1.0347216415618485 0.6897514348172833 0.12849902873638364 9 369 473
0.9745284727947277 0.692452534120797 0.1544120911506044 9 369 487
1.3570217091477308 0.830678956871183 0.023337121804994476 9 370 377
1.3180675215298987 0.7891133098002237 0.02969380594727067 9 370 393
1.3059299853947868 0.7718179391914872 0.030623010521766858 9 370 399
1.0446024644005585 0.6880654048204398 0.12048732903081039 9 370 471
1.3320327031276382 0.8093714328463815 0.02486654229454799 9 371 386
1.300310598704568 0.7894834651687708 0.03345775682830143 9 371 396
1.2610651949635576 0.6812238728364071 0.023753486879595442 9 371 427
0.5958328972590583 0.6732918051842973 0.3033591607661664 9 371 610
1.3225859401258122 0.8075538748691371 0.024589314162426046 9 372 388
1.2933616787157785 0.7680787919705312 0.02737387853482831 9 372 402
1.228522864190518 0.6541992870744309 0.027133178961283755 9 372 439
1.0637865322903792 0.6855860715341808 0.10480326735381329 9 372 467
1.0256391307379 0.6894925583672005 0.12196854210191166 9 372 475
0.9426722441008408 0.6876137064466867 0.15676899361062158 9 372 496
0.7609434605824835 0.6841245588174192 0.23314796636724922 9 372 549
0.6624695387545605 0.6811747232705292 0.27427714972190786 9 372 583
0.5671907500660445 0.6745583203119545 0.31315353788594447 9 372 621
0.5511416383382082 0.6431503097883287 0.31230797492362194 9 372 635
1.2936352573209935 0.8032457274342295 0.03205115573128903 9 373 394
1.276493725358614 0.7681148096244153 0.030755521774718186 9 373 405
1.1448511873828129 0.6122670660090606 0.04873455673404958 9 373 465
0.8488509543565472 0.6940340162609608 0.19509254490090266 9 373 520
0.7891141330304172 0.6844805678945898 0.21824336066762728 9 373 540
1.238430935949325 0.6727525969029968 0.01979579080661442 9 374 433
1.1032692623560694 0.644813859461842 0.07083804425979134 9 374 467
0.6672735070353382 0.677178601247092 0.2656343762398218 9 374 582
0.6231344097203844 0.6780139353074826 0.28475421669992174 9 374 598
0.5597330958218868 0.6694310463446 0.30981011595715735 9 374 625
1.2697782887280267 0.7909493950669946 0.03168743861895784 9 375 401
1.2500426639641709 0.7403299471381741 0.027668695864675685 9 375 416
1.181848621027831 0.6316657080900392 0.030155020955190737 9 375 453
1.171568097085189 0.6322519251094794 0.03472346489674105 9 375 455
0.9040509096273526 0.6874799831610958 0.16348192352903135 9 375 506
0.8211911659812876 0.6892710638019106 0.19957792986139766 9 375 529
0.7321853477329061 0.6841120539707237 0.23660077410393865 9 375 558
1.321329036817837 0.8944771267924057 0.03133751378245475 9 376 368
1.292535795871637 0.8428879446232791 0.030974577920247715 9 376 385
1.261083190136242 0.7756974416852944 0.02788874241738659 9 376 406
1.2342842049768792 0.7128796587880513 0.02387748494677433 9 376 425
1.0280996166416942 0.6812628300434938 0.1051145665994716 9 376 476
0.7892434847739369 0.6830700568133263 0.20876274890462865 9 376 540
0.6408983789287659 0.6743594895604046 0.2706946496776814 9 376 592
1.2725402188870902 0.819105516531468 0.02996197466510564 9 377 394
1.2368449012619434 0.7555900604773624 0.02961941826349801 9 377 415
1.158581939562591 0.6350189331530331 0.03352554572162458 9 377 457
1.005973052612437 0.6866719012969174 0.11260428610635553 9 377 480
0.9068834900859477 0.6877934176344596 0.15587198374883904 9 377 505
0.6809673547916841 0.6806102377758556 0.2520915258253522 9 377 576
0.6196289652044751 0.6736260986723801 0.2769615972490045 9 377 600
0.8509242433490041 0.6896078920112167 0.17746374508302265 9 378 520
1.187210218237821 0.667523920801268 0.021688555163404954 9 379 444
1.171575386644224 0.6405067748952433 0.021738655297893983 9 379 453
0.6977833323152349 0.6846135627675372 0.24005027419779834 9 379 569
1.2505162744901746 0.7968303990151815 0.02274583555699139 9 380 403
0.7982627150100152 0.6781883438138687 0.19142683404991034 9 380 538
0.6086563646957004 0.672819514848388 0.2733404781413693 9 380 604
1.2654385442678904 0.8370220219023754 0.022600806633176762 9 381 391
1.1772474226489524 0.6809663393443559 0.021956118587735496 9 381 443
1.1094619536004995 0.6224016520220219 0.03701008762959701 9 381 470
1.0023394243998172 0.6715704168226317 0.09670049200169406 9 381 484
0.8390628740691535 0.6859342923461551 0.17233488069252945 9 381 524
0.6551972643250925 0.6793626601782996 0.25174450334778675 9 381 585
0.5822529902825138 0.6777740863493165 0.28350639029950697 9 381 613
0.5540622683633618 0.6583449867895022 0.29101513097062437 9 381 629
1.2120325792689848 0.7755958475833931 0.026886259664434364 9 382 415
0.8098736532095545 0.6880521322492876 0.18266537355486845 9 382 532
1.266173854500076 0.8871861598825219 0.02761190926982593 9 383 379
1.196059397122542 0.7404259328347413 0.02129833544602433 9 383 426
1.1833744760899116 0.7203350356270652 0.021806020510911184 9 383 433
1.1193431085595646 0.6535767953852929 0.033219603508928164 9 383 461
1.06139315167921 0.6302434753899471 0.05301993072162503 9 383 479
0.7195131776973658 0.6813411325436616 0.21803801915553755 9 383 562
1.119902467138134 0.6341678772889341 0.02432301594204833 9 384 465
0.6746472727934695 0.678171653674372 0.23432083749514643 9 384 578
1.1819601176934154 0.7612438508332935 0.02553740861790521 9 385 424
0.8588723039811654 0.6944303336287339 0.15310551499276714 9 385 516
0.7035971888432978 0.681904992480658 0.21945656269578517 9 385 567
0.637373912281529 0.6752684402368745 0.24742131830837444 9 385 592
0.6026889007069478 0.6756261224513858 0.26305506794361266 9 385 605
0.5694444613959231 0.6803002965339586 0.279154605487133 9 385 617
1.2557647186528054 0.8903398332608234 0.02202717460810688 9 386 380
1.1573408820225557 0.698347152482977 0.016677796969536196 9 386 443
1.0160807137259937 0.6368762719625385 0.06433698525255549 9 386 488
0.9123079795153171 0.6913199065904039 0.12509387446640408 9 386 502
0.900848840086051 0.6916073359573098 0.13032327297109925 9 386 505
1.2453688961503133 0.8812386750284547 0.020681777445748173 9 387 384
1.2053367811596276 0.8449213970812024 0.02933753031229913 9 387 400
1.2034306968245598 0.8251982461527188 0.025079872784626867 9 387 405
0.8399180627612444 0.6954002991552048 0.15557802249316732 9 387 521
0.8058104241116798 0.6912264665410623 0.16989981150608857 9 387 532
1.1679741945252127 0.7508820783934218 0.018138175142781487 9 388 429
1.088169501207648 0.6421736364197255 0.026000820886614373 9 388 470
0.7689354673040713 0.6835536838549054 0.18153904800325427 9 388 545
1.1095952161423583 0.684389224523229 0.02364799278425378 9 389 456
1.1649985404156187 0.8181307525830848 0.029811441326137444 9 390 414
1.141099007066736 0.7349014921562143 0.01887567317656158 9 390 438
1.093868760371618 0.658756184539856 0.02046336395727477 9 390 465
1.0482621626054223 0.641931997077317 0.0368886512588138 9 390 479
0.7799699775337123 0.6851340262129839 0.17085416763769423 9 390 541
0.5792249531113804 0.6736896248603443 0.25959624650291735 9 390 614
0.5562864627887533 0.6705130603071949 0.26924569843898505 9 390 624
0.549801639721957 0.6520150325090659 0.2673513115844546 9 390 631
1.118171153019136 0.7205162769152407 0.0219553298063786 9 391 446
1.0199261552392618 0.6309275665099552 0.04341126675926055 9 391 488
0.968373706354277 0.6475361254345251 0.07144440185749124 9 391 497
0.6453695759835931 0.6725074074307447 0.22623332543635088 9 391 589
1.2076336391881162 0.8966787307775828 0.023754232346103965 9 392 387
1.0991627235973431 0.6983112473832214 0.021208867967614786 9 392 455
1.0855549535482283 0.671153782823638 0.020288099206923982 9 392 464
0.7589757215820974 0.6824046802904014 0.1736984562303262 9 392 548
0.7301460351163487 0.683587723095245 0.18729143311958918 9 392 557
1.1229936354117789 0.7464835080644732 0.01937422373820019 9 393 439
1.0322433575869463 0.6351828668676465 0.03176125237738159 9 393 484
0.7202839281430591 0.6841879208903463 0.1890435550107994 9 393 560
0.6797084675185889 0.6832582907046731 0.20755976686925692 9 393 574
0.6661452124217728 0.6780274628239047 0.2124416974461385 9 393 580
1.1529104294008556 0.8233662241435242 0.022385534541929042 9 394 415
1.1332047132338505 0.8020537339302127 0.02584743577043591 9 394 424
1.0521973986693982 0.6547927160377323 0.02416486021522135 9 394 475
0.8919427848353632 0.6817879435744718 0.10576199493718663 9 394 509
0.8676943084760977 0.6890224770298374 0.1189489952973316 9 394 514
0.6239228568911495 0.6790713526334402 0.22945999824705543 9 394 595
0.601033882857311 0.6777360971727795 0.2397294968885828 9 394 604
0.5522003032712604 0.6279286287431685 0.24911108377863234 9 394 635
1.1681043270749951 0.8693295500278257 0.024026134223018136 9 395 401
1.1115714861699428 0.7825546579766944 0.027130589840670627 9 395 433
0.6466207104039164 0.6812715113161991 0.21668495328878712 9 395 586
0.5691210858887921 0.6710472525565887 0.25006379925413347 9 395 618
1.0787470660134135 0.7127923722504885 0.020168675745926623 9 396 456
1.0656674621624327 0.6810994167139943 0.01776610634537701 9 396 466
1.0436850595158382 0.6631144824160393 0.023214429382569124 9 396 475
0.9887331942199049 0.6317959893829215 0.04050188779837127 9 396 495
0.802893061910729 0.6870412947092559 0.14229903492942353 9 396 533
1.0290180784865375 0.6556330867697231 0.024517339482992617 9 397 480
0.6726826376719159 0.6832601742292663 0.19932446219346933 9 397 576
1.1258455489921129 0.8662339893910977 0.0323849861204365 9 398 410
0.8883170820756181 0.6537974733018417 0.08680284019405526 9 398 516
0.7260854018530641 0.6822900031913761 0.17100739854621438 9 398 558
0.6870948220433186 0.6784965956869671 0.18836153142659506 9 398 572
1.1117850811214058 0.819811955400406 0.022903314883769177 9 399 424
1.0939414915096577 0.776267173219138 0.019502884100497164 9 399 438
1.0331559532750045 0.691203548117157 0.02513109188605911 9 399 471
0.8310743729832701 0.6888314804987812 0.12012236592146697 9 399 524
0.7761001582048598 0.6864437294852663 0.14548978292736459 9 399 541
0.5907837027843861 0.6749091086766041 0.23005445010712922 9 399 608
0.5527326634385673 0.6672637830434058 0.2459826924567945 9 399 625
1.1565875115747897 0.9023523378410114 0.02062375476898559 9 400 395
1.0718092292992676 0.7794500103205684 0.027338546432976396 9 400 442
0.9922571953447687 0.6492436019067731 0.029576013519507227 9 400 490
0.9541663897419399 0.6287984002137852 0.04208879458408121 9 400 504
0.5484946613883617 0.6483665397166232 0.2401535754790407 9 400 631
1.1349750917931984 0.8828234111425952 0.022044860240303388 9 401 404
1.112552198414134 0.8604045105714322 0.026592496992552617 9 401 414
1.069384964897974 0.7513406016721409 0.017281915941915527 9 401 449
0.9444259391179264 0.6261222106679751 0.042547937676798764 9 401 507
0.8597048954923832 0.6611477325741588 0.09255068440515357 9 401 522
0.7628580162728616 0.6861052225450157 0.14557618326071498 9 401 545
0.6300327822300349 0.6742910444896286 0.20567931628432157 9 401 593
1.0947245373776089 0.8383270399901857 0.025552002815314667 9 402 423
0.9269500009470928 0.6278261676187602 0.04453189586307604 9 403 511
0.5526945558033116 0.6735366223536849 0.2369904673744958 9 403 623
1.0787433899372234 0.8353970415846139 0.025457729382723504 9 404 427
0.8138217004503341 0.678374391798414 0.10969874152239689 9 404 531
0.6541856068510847 0.677920723643278 0.18656933973165168 9 404 583
0.5893363584932318 0.6745705906989208 0.21691883443154636 9 404 608
0.5720698904323043 0.6737233854104283 0.2250119715280814 9 404 615
0.5618401697811481 0.6741646619673065 0.2300683669441138 9 404 619
1.0322764033930876 0.747508648730798 0.02001969729035491 9 405 458
0.8982136919543233 0.6208867870160633 0.04968389087618208 9 405 520
0.7527021003659631 0.680939040526559 0.13684596201146237 9 405 549
0.7008919978421783 0.6892064743194442 0.16423043124100745 9 405 564
