1.0731749077935817 0.6233009730726661 0.4635214069238811 9 238 479
0.7728716035432932 1.462393591753881 0.7348948194120334 9 239 214
0.7706493037509352 1.4491349741104007 0.7323311460769458 9 240 220
0.7606788416513828 1.390757903040952 0.733130418418795 9 240 246
1.1046664949241762 0.6964463332455983 0.44249833112097825 9 240 453
1.0763176922797628 0.6869362647494035 0.45996866539189263 9 240 460
0.7626183779293083 1.3770334994220832 0.7277983590352844 9 241 252
0.7597505489771261 1.4584950359738686 0.7349176013663209 9 242 216
1.0615239541993293 0.682480068891272 0.457698743563679 9 243 463
0.7554883252389613 1.4434633826033725 0.7281006870478978 9 245 223
0.7579376163527687 1.4005774594604237 0.722211619778528 9 245 242
1.0964526162198673 0.7067393281369068 0.4215066315259932 9 247 450
1.0268163525871041 0.6886238218955909 0.4660596940056957 9 247 466
1.0165365248080915 0.66292157770021 0.46655785009689255 9 248 475
1.0539642232848296 0.706835196409549 0.4421347002677771 9 249 456
1.0913825878330525 0.7138391268792503 0.40985114666453826 9 251 448
1.0218403535161007 0.6988902993768991 0.4553188519273026 9 251 463
0.9898934514238553 0.627889363689443 0.4658812591463626 9 252 489
1.0403251052282474 0.7080284378371704 0.43608399174763246 9 253 457
0.9892197294571763 0.6752346665888287 0.46748346024954834 9 253 475
1.1944471134102839 0.6956350092795572 0.3213702360340931 9 255 438
1.021948417391457 0.7056737273964315 0.4369014248581513 9 256 460
0.9843235005299726 0.6853365623703982 0.45691480440047316 9 257 472
1.2068360540311893 0.6951535912938145 0.29990679259987796 9 258 436
0.9573334917020537 0.65949385255935 0.4654183463379422 9 259 484
1.166933449099839 0.6947598524626862 0.31907427640555075 9 260 441
1.1504390031521636 0.6956563544806094 0.33069106083041033 9 260 443
1.0962850451010495 0.7125074990267419 0.37031972470111874 9 260 446
1.0620045137708938 0.7161793830984732 0.3946565989757722 9 260 450
0.9884925232930388 0.7112747635519274 0.4454771806988105 9 260 463
0.9770805671391924 0.7042369417439214 0.45269462799878046 9 260 467
1.0878589266507197 0.7034168332806325 0.3590190180021542 9 264 449
1.0401730414833787 0.7180757620670393 0.3944117113864869 9 264 452
1.0284243690938721 0.7174184436840338 0.40266592035117443 9 264 454
0.9288033566179399 0.6632639353441907 0.4673563286060509 9 264 487
1.2723217263168014 0.6901661381061561 0.22229337753102163 9 265 428
0.9426947217674277 0.6872617933887619 0.4564171311284515 9 265 477
1.085839686463308 0.6995066072735662 0.3518662478298036 9 266 450
0.9148008785197865 0.6473427193662544 0.4682104588843098 9 266 494
0.9090830234400191 0.6311731839329542 0.47051129400909775 9 266 500
1.1761091019004963 0.6929788914894572 0.2823835386121192 9 267 439
0.9568957183562965 0.713503781565854 0.4379330718436101 9 268 466
0.9249249755070963 0.6858001098746869 0.4578396430034435 9 268 480
0.8918058803405768 0.5780302526426055 0.46967221607540255 9 268 519
1.1894128176297845 0.6926080261649077 0.26405412303978126 9 269 437
0.9380343076634636 0.6937581284109662 0.44556658626916934 9 269 475
0.9099232209566042 0.6810707565820018 0.4644335330544844 9 269 484
1.1274716697805423 0.6895007558341393 0.3041660105668176 9 270 446
0.8977800371366207 0.6576027593095592 0.4632551856833109 9 271 493
1.1664763992081597 0.6982507711621486 0.2682077071728355 9 272 438
1.28853534828367 0.6967980144893524 0.1696415789016108 9 274 423
1.2451276906570024 0.701182762135111 0.20202987547919826 9 274 427
0.9513317974682582 0.7124622139700839 0.419140965365459 9 274 466
0.9120564217042693 0.7048846442851345 0.4434150161720696 9 275 475
0.8673011164459361 0.644938356160818 0.4695276137355452 9 275 502
0.8523692371187663 0.6152830782787396 0.4735207219359072 9 276 514
0.8860782327220922 0.6898141918902604 0.453507981100548 9 277 484
1.186789806260399 0.6916586222303964 0.2259719866747092 9 278 436
1.1421285797884972 0.6944488490904506 0.2552130244710693 9 279 441
1.111402177185921 0.6916346821610733 0.2778610540476951 9 279 446
1.090298250460134 0.6880192496132056 0.2932197573911357 9 279 450
1.4273245464546953 0.6808490426377869 0.03521623577730382 9 280 411
1.3986860066425075 0.6760816686110089 0.05614819608171362 9 280 415
0.8544325461533768 0.6785127482320665 0.464870679617733 9 280 493
1.2696553954165017 0.701055351269086 0.1511929930798801 9 281 423
0.8373957199465676 0.6665096987609118 0.4726597549190171 9 281 500
0.8269132727116166 0.6384988276305327 0.477249435345393 9 281 511
1.1145575368486327 0.6916009700433714 0.26256257928105886 9 282 445
1.0166923376062333 0.6937261722253785 0.3367799050003297 9 282 459
0.8238223121128989 0.6269937033413456 0.4746399364253816 9 282 515
1.414641703028687 0.6844826470938692 0.029779039339182356 9 283 411
1.4122238349302958 0.6723946138851811 0.030173782509389735 9 283 414
1.1880542304294766 0.6914844044036239 0.2024716194902243 9 283 435
0.9071934382695201 0.7151457817340596 0.4183120852443982 9 283 471
0.8890160123808557 0.7056111041477482 0.4272340384957227 9 284 477
0.8765863976805028 0.7001900281536333 0.43604653138774596 9 284 481
0.8335364186455094 0.6794320336593362 0.4663315663347595 9 284 496
1.4174323065556256 0.721416518083994 0.02176818156096405 9 285 402
1.3942165075593584 0.6660481560541442 0.03285000627782608 9 285 417
1.2569967684917398 0.692221283756987 0.1408081369447407 9 285 426
0.809157956524277 0.6060468978551004 0.47253348335560985 9 285 524
0.8025727690825313 0.5852643302001401 0.4750669285375009 9 285 532
0.8416724222681216 0.6917051756207324 0.4543600132563832 9 286 490
0.8208872472623043 0.6767086338918888 0.468483013470787 9 286 499
0.8126454108686982 0.6314620012808038 0.46934085256971536 9 286 515
1.3907614311717056 0.6837219698673653 0.0273746437840523 9 287 413
1.039571643048197 0.6880348049477966 0.2980467156383384 9 287 456
1.3884066107649102 0.8002812031382132 0.03824633776080111 9 288 386
0.8874431842084998 0.706873726244665 0.4135925603442234 9 288 476
0.7843778585103272 0.586738967602134 0.4785273050247598 9 288 535
1.3882899982876549 0.7827712058429273 0.031115322057102324 9 289 390
0.839945948336762 0.7032920142307042 0.4461790312703118 9 289 486
0.8071652712117012 0.6803563820202851 0.4687682146987322 9 289 500
1.3685011871504629 0.6830678022484108 0.029150002777820205 9 290 415
0.9583917681854839 0.7001996432966993 0.3500689663037282 9 290 465
1.380684349411443 0.7633237496709768 0.02443384112096636 9 291 395
1.357566695025804 0.6959565636565337 0.03415625671017519 9 291 413
1.1244226334734932 0.6914008614257288 0.21547408824156244 9 291 442
1.2016825085792868 0.6942655747432882 0.15089164844891467 9 292 431
0.9018011456320876 0.7117751475902078 0.38782503174132166 9 292 471
0.7891991593366543 0.6744738730360327 0.4713531457158937 9 292 505
1.3783920745132852 0.8185517414834362 0.022865034883968738 9 293 382
1.3647292216875466 0.7983378451750077 0.031082289267222896 9 293 388
0.857024964840178 0.7088079703604189 0.4187883885513308 9 293 480
0.8399202202793499 0.7034478264105302 0.43155858682645 9 293 485
1.3584066900574905 0.7579038890683061 0.025933412897497066 9 294 398
1.352801280150368 0.7218737690120682 0.02584754948657375 9 294 407
1.0906552904154916 0.6881995326357304 0.22829899364238004 9 294 447
0.768035017429956 0.6283837084803388 0.475156602120947 9 294 524
1.3490472113315064 0.7143295127425877 0.022770625625574414 9 295 409
1.1153316063973215 0.6933065107913354 0.20502339336211906 9 295 442
0.8005665571184077 0.6988640461417411 0.45473256762890446 9 295 494
0.7747833121632006 0.653919537779713 0.4694855308732836 9 295 514
1.07041023383754 0.6901909340898844 0.23582039571211544 9 296 449
1.0033861541353206 0.6945241974697136 0.28957501307045486 9 296 458
0.7503106893585791 0.599276577471123 0.4784686636335941 9 296 537
0.7469086376482448 0.5862614948951681 0.47952778252003814 9 296 542
1.2913396855203463 0.6716155956988634 0.053107498723242275 9 297 425
0.7524570391086824 0.6217325229606615 0.4760801080030018 9 297 529
1.3416570456585142 0.8464923216723502 0.030141252953665987 9 298 378
1.3294242925266495 0.729567303860239 0.02504227817225546 9 298 407
0.7561483042132853 0.6678360362324629 0.4754699627186042 9 298 513
0.7403926466404913 0.5611823340200627 0.4744941924159818 9 298 551
1.3173741172164135 0.7003422682685299 0.02589397072373867 9 299 415
0.9551807665379521 0.6918681658420277 0.3153599311305848 9 299 466
1.3395161430085254 0.9493024499416639 0.03495109991848677 9 300 353
1.1856536482505742 0.6887097651804743 0.12535851882131066 9 300 433
0.7858706426727982 0.7046882187891077 0.4492278650670931 9 300 494
1.3075406525952724 0.8122961873670076 0.038107618074531446 9 301 389
1.3143605991269371 0.7511387828769895 0.024714341260388517 9 301 403
1.1476261771295895 0.6954549486138946 0.15222030616633853 9 301 436
0.8980328891488898 0.6938474182916925 0.3536293239001296 9 301 475
0.7725024651529953 0.6973130161749665 0.4554769610235818 9 301 499
0.7652795251641367 0.6929527405890606 0.460749385139268 9 301 502
0.7345115536483002 0.6224758139341872 0.47651739474047294 9 301 532
1.3046960399167817 0.7336909251376986 0.025226173162324228 9 302 408
0.8171511652873436 0.7142758164061064 0.4179076961674755 9 302 484
0.8035226376536515 0.713528544253945 0.428857987049587 9 302 487
0.720013957153129 0.5457627279998667 0.47482662533025266 9 302 560
1.3028723520397434 0.8583317244309285 0.037859852566281216 9 303 378
1.3017276615037001 0.8011398642805523 0.03135368030800767 9 303 392
1.300122957650038 0.7851994817702022 0.030586040311310958 9 303 396
1.2999740414964451 0.7686185758483212 0.028550979154530642 9 303 400
0.722845084687685 0.6111413977519438 0.47750510348213415 9 303 538
1.2872637521676655 0.8228064330931418 0.04096490958936205 9 304 388
1.28709407765413 0.7982322127777031 0.03789390956071825 9 304 394
1.2841334613687896 0.7122529136250935 0.029081158558993403 9 304 415
1.284629566542845 0.6910081745540435 0.025901585911563885 9 304 420
1.2662263251761479 0.6662247846055718 0.037685685909095046 9 304 428
0.742714139189451 0.6785533236346954 0.4665916886840976 9 304 511
0.7274730060803765 0.6498073061889449 0.4752773097351297 9 304 524
1.1012652325745276 0.6896877669994526 0.17085963872611165 9 305 443
1.0898935689488702 0.6881284409673252 0.1799688830972319 9 305 445
1.0642874006396585 0.6943920467455769 0.20176279573499234 9 305 447
1.054391680009498 0.6923119201670811 0.20959487979438607 9 305 449
1.0395787142651105 0.689345025155598 0.22133803849793376 9 305 452
1.004333003044706 0.690860101897294 0.250404205728298 9 305 457
0.7578629189930011 0.6948176129649215 0.452790690512332 9 305 502
1.2666236893169778 0.6939529904991865 0.030974730684792284 9 306 421
0.7092854768252144 0.5819897575923455 0.47428204313975875 9 306 550
0.6832925565502577 0.3770924115477641 0.46865254597704753 9 306 622
1.2738327147466413 0.756646713343371 0.028301453077911543 9 307 405
1.2693723547417668 0.7461665831944746 0.03059337558959041 9 307 408
1.3047697494730008 0.9733428629510155 0.026472624690687674 9 308 349
1.2693829065891957 0.831841844668904 0.036955441283777146 9 308 387
0.9605842560342097 0.6888289632028266 0.27349879290168455 9 308 464
0.9065097989067599 0.6899913877495172 0.3184024600418649 9 308 473
0.6872454148946785 0.4673288159602804 0.470268701255379 9 308 592
1.2870629928407498 0.9703003140284123 0.035773535394292066 9 309 351
1.0730820584572183 0.6904435723569617 0.17611860915682032 9 309 446
0.750313996676681 0.6998725220442619 0.44540347445806394 9 309 501
0.6681306334644772 0.41476076689291896 0.4756025852370509 9 309 614
1.255731615353247 0.8361548642742664 0.03894304608034349 9 310 387
1.260580210700495 0.7975926152301938 0.029735021138870055 9 310 396
1.2545637448721327 0.7714384093666 0.031243262645870296 9 310 403
1.1171858190237145 0.6969477467466474 0.1357318860371326 9 310 438
0.873077439728934 0.6854853923114447 0.33760133424495775 9 310 480
0.8489121451852963 0.6942020640299964 0.35890544713467465 9 310 482
0.7063340990768494 0.6604406183558802 0.4731854112700856 9 310 524
0.6667398282732004 0.4467902549020435 0.47754552662576455 9 310 604
0.791920494457683 0.7077400854718716 0.4045046554710243 9 311 489
0.6870741443486112 0.5677544227043598 0.4733290401221686 9 311 559
1.0641001154880128 1.0741419147659288 0.2219568813500412 9 312 340
1.245540652255049 0.8026991619196417 0.0330396969649005 9 312 396
1.2367054549254495 0.7820207638574992 0.03765747877308678 9 312 402
0.696632950134042 0.6387328815614421 0.47141053359909924 9 312 533
0.6882257104614375 0.6241091978276343 0.4764876279723642 9 312 540
1.2401030140222051 0.8487926250182996 0.03889995501044674 9 313 385
1.2138397769545604 0.697937269945532 0.040533570938358965 9 313 425
0.7141241594185799 0.6945822719659379 0.4607783536111951 9 313 510
0.6726657138815817 0.5068653633264324 0.4702009730099769 9 313 582
1.2649221964166308 1.0108466198466655 0.03507980179264836 9 314 342
1.0271722174050706 0.6932022588063191 0.19262310464065857 9 314 451
0.9714826170663984 0.6920909502480699 0.23951634147721457 9 314 460
0.8329434100673705 0.6946892329086618 0.35690385244727363 9 314 484
1.21898625340322 0.787887753492618 0.03856139367625322 9 315 402
1.2193513074766977 0.7390014610855409 0.0315596644677707 9 315 414
1.0778422235547032 0.7024829965481463 0.1465122880997176 9 315 441
0.6942015790156366 0.6803101943447867 0.46867438794880034 9 315 519
0.673804855282498 0.6056435804451017 0.47574242465027083 9 315 549
0.6551461437614507 0.4616487457590176 0.47184653134121624 9 315 601
1.2534254749750544 1.013524392562715 0.035345121848798566 9 316 342
1.2332869640340762 0.8699859625846694 0.032741200309950536 9 316 380
0.9590232551503521 0.6871002453807948 0.24087764223950936 9 316 463
0.6426449787767976 0.40664857442343894 0.4714222824464972 9 316 622
0.6423504731409059 0.3973842777342611 0.47039916512432267 9 316 625
1.2144570115213271 0.8448165356173665 0.040388045207806256 9 317 388
1.193478894393159 0.7010257571131745 0.038440927228517774 9 317 426
0.9379604048300865 0.6881972846470894 0.25474796361763863 9 317 466
1.2087197095424909 0.8266626632710823 0.037863224202448365 9 318 393
1.2086354729397364 0.8106965241930287 0.0357218067329812 9 318 397
1.1992101395775252 0.7946649566515602 0.04157093456498884 9 318 402
1.1984047485298719 0.7789794540206094 0.04008601376100507 9 318 406
1.2089016500476504 0.7459603140541397 0.026518781557631765 9 318 413
0.7492134900118599 0.705708031851422 0.4146102492251811 9 318 497
0.7136688609385311 0.7028879207711676 0.4446593109807444 9 318 506
0.6783107500624126 0.6776818708513357 0.4714450381478188 9 318 523
0.6380272634296398 0.43742325069657806 0.4726337646552594 9 318 613
0.6302374954579812 0.3790471389261314 0.4712115340719768 9 318 634
1.1862112182466649 0.6664398503405363 0.029970483858923647 9 319 435
1.0723318552103063 0.6948470978263788 0.1317835425941325 9 319 443
1.033918833020574 0.6968752154974548 0.1650747269407704 9 319 448
0.8846276532742623 0.687974085910332 0.29212334985771804 9 319 475
0.876516198677143 0.6862355979768464 0.2988515882790592 9 319 477
0.6345594521015536 0.4853823955134092 0.4753473672610471 9 320 598
1.194230024518694 0.754836314270023 0.025495540833520458 9 321 412
1.167554300253478 0.6989075660374093 0.040722547829930456 9 321 429
1.1778832690921592 0.6692399260096604 0.02762077587623568 9 321 435
0.6698133825356238 0.6845073572430351 0.46933769818154114 9 321 522
0.6659832113308322 0.6576147501560982 0.4688757856671246 9 321 532
0.6593295646811816 0.6359653857457369 0.4715928449977296 9 321 541
1.2087022821250342 0.8764277856088712 0.025110501381434336 9 322 380
1.1868613386837694 0.8136367588553539 0.03521841945826476 9 322 398
1.1679278858177806 0.6532430410350984 0.029041371241100844 9 322 440
0.6880875155330513 0.7058985112667879 0.45302844861890623 9 322 510
0.6377596992903845 0.5354906253097537 0.47269386541050573 9 322 580
1.2090952269708355 1.0240821054007516 0.04072535205028327 9 323 342
0.9981101487807336 0.6953302025170828 0.17796612632565356 9 323 453
0.8375552972278293 0.6843558310193837 0.31626883665547423 9 323 484
0.8193105844513875 0.689692450850085 0.3329170356483404 9 323 486
0.7035956991225827 0.7059312915736419 0.4360132887631831 9 323 506
0.6391141925245046 0.5727975241192398 0.47333295437051404 9 323 567
0.610971676690216 0.3934800332370991 0.4724597043056262 9 323 634
1.166371390177722 0.8054074155332268 0.04210457029193759 9 324 402
1.1767063939289366 0.7529337269797542 0.02561105692127086 9 324 414
1.1759070389209467 0.7412227043301847 0.024644750578377117 9 324 417
1.1587438191843686 0.7132736848548015 0.03567257817466696 9 324 426
0.9345678742701562 0.6918055399425223 0.22855979277762994 9 324 464
0.6450988922698327 0.6447657701572006 0.47488035547673413 9 324 541
1.178207695587972 0.8865087936456888 0.03841329539063976 9 325 380
1.1731568396014453 0.8728142339904783 0.04088784149125657 9 325 384
1.172397726752674 0.8574620907799493 0.03936183576733687 9 325 388
0.6167013111143758 0.4600032893466368 0.4699703314438898 9 325 610
0.6113252188870058 0.40615973248558035 0.4669982225162921 9 325 629
1.158001329489873 0.7881473273204223 0.03720498813814599 9 326 407
1.1620105167522765 0.750479918722343 0.028276931113301984 9 326 416
0.6243258778727322 0.5708820790551822 0.4756850136867512 9 326 571
0.6233976110236701 0.5046819849582432 0.46701138553344423 9 326 593
1.1583978192321127 0.858133208559904 0.042030639419407656 9 327 389
1.1519642691469123 0.7145336793440933 0.027039057300135116 9 327 426
0.9962735380642644 0.6969967007463214 0.16198471784994561 9 327 452
0.7413887734702678 0.7099782382153738 0.3889090959186361 9 327 495
0.6520533908721995 0.6898772696723816 0.46489587192293513 9 327 523
0.6058310218556465 0.47800334391769483 0.47520801757769393 9 327 607
1.0661818007293973 1.0943482585577722 0.15300565653144504 9 328 333
1.1643392731417146 0.898128818065753 0.03767736994729631 9 328 378
1.1562890532316794 0.8271796916187198 0.034553454408128736 9 328 397
0.8937297818106278 0.6888718647977803 0.24717748545131202 9 328 471
0.6442456337641154 0.6773359718791842 0.46654306486910935 9 328 529
1.139360023695357 0.8103676416030786 0.04226676013646591 9 329 403
0.6074707435070285 0.504594340040017 0.4707099353036375 9 329 597
1.1281427511037505 0.6803281984944741 0.028450875139081067 9 330 437
1.1258896390559145 0.6614083736139614 0.027702882938517748 9 330 442
0.5944812909440622 0.47372559744279163 0.4743445458326292 9 330 611
1.138268504584382 0.8292486310431397 0.03626030484019749 9 331 398
1.1358553256356796 0.7674828902869417 0.02938005257289733 9 331 414
1.113127547143425 0.6947190824167351 0.0341886569102785 9 332 435
0.9381048831495533 0.6940921966753089 0.19126686111127555 9 332 461
0.8581578214409034 0.6838672449359091 0.26155661724960066 9 332 478
0.7997455729826466 0.6820286914000797 0.313740609516185 9 332 490
0.6710714858992488 0.7069310690214008 0.43294967166546305 9 332 511
0.6286528929775201 0.6743215803150502 0.466249152377162 9 332 533
0.6251071632632352 0.656594848834609 0.46682803117913085 9 332 540
0.6014328106808555 0.5344174023668945 0.4701319472973622 9 332 588
0.6552279824973353 0.7000013708774193 0.4426538381563594 9 333 517
0.5903992047562717 0.5017363044080322 0.47180854862150046 9 333 602
1.1459582761807035 0.8984514268038636 0.024893396764539277 9 334 379
1.133842869903905 0.8683501951910145 0.03138620894355659 9 334 388
1.127409271325271 0.8399939964333093 0.033000868278652895 9 334 396
1.1074534503242364 0.6602456043230639 0.024407667490199625 9 334 444
0.7146301088752944 0.707277233020593 0.3865147154098434 9 334 500
0.5836198362699672 0.4369647332651625 0.46490250235223063 9 334 625
1.1189825213049072 0.8080737894802379 0.031020506487311916 9 335 405
1.1231345496369183 0.7984021988902659 0.02581516371969661 9 335 407
1.1145810724538743 0.7670498152296068 0.02890931504764449 9 335 416
0.9706836813793556 0.698079795876198 0.1491783059158993 9 335 454
0.5942814422751128 0.5469716502344503 0.46813376658629857 9 335 585
1.1068520075082502 0.7386419409688098 0.026807065265079588 9 336 424
0.9512663699873458 0.6939816438504336 0.16174314167998727 9 336 458
0.8024127411367634 0.6867763530014741 0.29614764239922486 9 336 487
1.0551261540040677 1.1162877333702341 0.12579516226829468 9 337 327
1.120894459579262 0.883578995090183 0.03082579481412817 9 337 385
1.099058731062376 0.799719326459337 0.033336652702898206 9 338 409
1.0925365039635648 0.7443765713805257 0.03097706056173144 9 338 424
1.0779702481181839 0.7321799226334855 0.04248689139178574 9 338 429
0.9019777618870106 0.6897178345471088 0.1973513355689238 9 338 467
0.5875234516201593 0.5650770242731036 0.4667090447519253 9 338 580
0.5730161020739979 0.44328939016514024 0.4616580713169527 9 338 625
1.1133664492311333 1.00626358487674 0.04655703171542913 9 339 353
1.1036224044607583 0.8932155500298132 0.038418287533301676 9 339 384
1.113339457323195 0.8509715405188495 0.023095888322266722 9 339 394
0.622739984614862 0.699099118222454 0.4511675138475133 9 339 524
0.6107206163797787 0.6882043679481504 0.4605700174795173 9 339 531
1.078944487292123 0.7458775800971416 0.033976833047923094 9 340 425
1.0610521689665764 1.0930522105780214 0.09861255335345231 9 341 333
0.8874104735157162 0.6892123398382608 0.19775059050418697 9 341 469
0.8787786941210927 0.6875787854482334 0.20549058511468932 9 341 471
0.8715016418046035 0.6851690429555328 0.21185837672668262 9 341 473
0.841062370799933 0.6839727660807773 0.23984877445633512 9 341 479
0.6630410375918692 0.7111888355487082 0.40876454272600515 9 341 509
0.6529315601063674 0.7097166806851108 0.4178968166855195 9 341 512
0.6172610692056891 0.6899162237503199 0.44789229687688703 9 341 528
0.5789605618649201 0.5965739284358327 0.46910885417536097 9 341 571
0.5710410792458549 0.5418821651982272 0.4680996686882537 9 341 592
0.5707227271977955 0.45724967587577714 0.4554901855593241 9 341 620
1.0618767287720878 1.106723026238388 0.0953389569590215 9 342 329
1.0642091214740614 0.7941859998840449 0.04532591980557976 9 342 414
0.5720570496085329 0.5276789156651224 0.46155811548538495 9 342 596
0.5712941458171008 0.5012466765230145 0.45822000076535474 9 342 605
1.1056212753496768 1.0074259184600978 0.03470997505953277 9 343 353
1.0859822590328223 0.8602979654384847 0.03039295264287034 9 343 394
0.7540965360149707 0.6844114682135132 0.3125906577614248 9 343 496
0.5754869378221461 0.5858501554169203 0.46385957379309695 9 343 575
0.5638686226943993 0.4712917076525901 0.45707566941819056 9 343 617
1.0770089868292567 0.8292303495033084 0.029139565092313635 9 344 403
1.069344120825219 0.8097107125841156 0.033292563274057274 9 344 409
1.0616571729466857 0.7787996317288641 0.035708080431304356 9 344 418
1.0973232093627114 1.0572304548248708 0.040565246676996125 9 345 340
1.0947572251233555 0.9279912307374443 0.022944928075073534 9 345 375
0.9370683055909264 0.6878863660684253 0.13364800984706227 9 345 460
0.8185898636046971 0.6851196647683009 0.24435057134045213 9 345 482
1.096264044334089 1.016809890554439 0.030488507356713157 9 346 351
1.0955846543114032 1.005912337017557 0.02943236034749419 9 346 354
1.0900085452329933 0.9742847681890352 0.02975925774711885 9 346 363
1.069761720395752 0.8693115526703707 0.03248130848521802 9 346 393
0.6214456669600464 0.7056451162463797 0.4289355465368907 9 346 520
0.6923572170014938 0.6966305009334526 0.3570448452735624 9 347 505
0.5668590449166081 0.5748436578733245 0.4565225141053686 9 347 580
1.0542297369750022 1.1145611084398275 0.07599343533311376 9 348 327
1.0816479954096863 1.0608671567160286 0.0415954900214528 9 348 340
1.0798079699312688 0.991818358400439 0.032508700810355284 9 348 359
1.0777469125000656 0.9702923175355307 0.031085083283918236 9 348 365
1.0673244846013 0.903223619710046 0.030439894231409914 9 348 384
1.0583097921132514 0.8880794182744521 0.036605167190721266 9 348 389
1.0582702515722997 0.8542170245564439 0.03133144002724819 9 348 398
1.053963667648409 0.7952805037688462 0.02616755818991967 9 348 414
1.0572603468284425 0.7706149703560649 0.01917556550276589 9 348 420
0.9045903252117027 0.6898100945929051 0.14669670002331436 9 349 464
0.5580005125823427 0.4513442287419307 0.4385992389194695 9 349 623
1.04917415642642 1.1084120050180513 0.0705312776482685 9 350 329
1.0653480053976447 1.0251135455324665 0.04193547119330465 9 350 351
1.0745106576523262 1.0149582173387062 0.03159113218336129 9 350 353
1.062699581031545 0.9857567889396446 0.03823863157872265 9 350 362
1.064173989874926 0.9408959025753989 0.029739471168242382 9 350 374
1.0379245730339166 0.8544330296411708 0.04110358168384365 9 350 400
0.8830036203884322 0.6880463456961257 0.1625485091591532 9 350 468
0.6591761279903177 0.703218389442333 0.37841784839593506 9 350 510
0.6214771316830483 0.705018817080237 0.4146570920219359 9 350 519
0.5943733351583416 0.70009526709425 0.4397282688274382 9 350 528
1.043388168548978 0.7984183763175583 0.02219607827588166 9 351 414
1.0411990090517884 0.7688432053468668 0.019595973155889013 9 351 422
1.0248577948894266 0.7579406654921872 0.03350216253093774 9 351 427
0.5647073785249825 0.5514642017713173 0.44104314430445757 9 351 587
0.5657646037364776 0.523215286425437 0.4355471090058507 9 351 596
1.0584458550637574 1.077141063012819 0.04730981486733299 9 352 337
1.0505344927613838 0.9854919417025428 0.04029820711582177 9 352 363
0.7630061837504725 0.6866840976650949 0.26872437248186487 9 352 491
0.7508283083367568 0.6853396914352712 0.28020184987120267 9 352 494
0.7438139277801576 0.6837623394690843 0.28668482512609494 9 352 496
0.5562233947372544 0.4678179738503878 0.4323694905330959 9 352 617
1.0520332335808873 1.0101751131000658 0.03803530671695121 9 353 356
1.039768045713127 0.8782456683991017 0.02873875031007489 9 353 393
1.0232828526595283 0.825559619920583 0.03618766967988751 9 353 409
1.0307182515083972 0.8069875159697877 0.026053474573398017 9 353 413
1.008187592921395 0.7575235692564875 0.03984141132377883 9 353 429
1.0430501280929452 1.03439500367266 0.04583785524597128 9 354 350
1.042629667132392 0.9691987695600762 0.035769865894867525 9 354 368
1.042673699308778 0.9471500163985199 0.032184983041117166 9 354 374
0.8250095094914214 0.6903127560735839 0.20128732044800746 9 354 477
0.8100756298211351 0.6898804763137272 0.2156509904503654 9 354 480
0.5685093620562229 0.6772685970446976 0.4470908927007302 9 354 542
1.0490632616213162 1.1074869268718883 0.047058162986155505 9 355 329
1.0422842184081824 1.0773021482344673 0.04876281801152205 9 355 338
1.0276860906575545 0.9413069267469656 0.040982201380529215 9 355 377
1.014584224964688 0.7794334664003244 0.02757653532523241 9 355 422
0.5590400998085823 0.6254839957664384 0.4410156524381721 9 356 562
0.560186711363018 0.5979005211937636 0.43543317491657807 9 356 571
0.5597240334977456 0.5141492205197619 0.4223203671185711 9 356 599
1.0342253230679055 1.0932234757900325 0.049763340023740055 9 357 334
1.0123020089914159 0.9207714150881052 0.04312435371143297 9 357 384
1.021898793674123 0.8911154549688628 0.028935128321217363 9 357 391
1.0164192728821273 0.8600241962428031 0.029228694959401613 9 357 400
1.0302000335040593 0.9829869225526572 0.03100156179184932 9 358 365
0.7892846113817766 0.6867792855412489 0.2185891652791545 9 358 484
0.5544996657849065 0.48029285313867587 0.41481848511085895 9 358 611
1.0343868945342933 1.0283717809583561 0.029545027249370026 9 359 352
1.005858912197055 0.8857472936677391 0.034202529532027626 9 359 394
1.0058558048022426 0.870982821651189 0.031785950561409315 9 359 398
0.8770089495187412 0.691402024358521 0.1289585534748341 9 359 466
0.6935652696665064 0.6850141573473942 0.3081602612516461 9 359 505
0.6413022069218643 0.6965778151521974 0.3614081125825961 9 359 514
0.6038667091816744 0.7048405720261645 0.39954569832409703 9 359 521
0.5708197416649892 0.6907976761671638 0.42971569415446176 9 359 535
0.5574966998110067 0.42876966524684024 0.3998649900868758 9 359 626
1.0218579381567356 1.0711580604205504 0.044159080386145355 9 360 341
1.0073480185615653 0.8623704325414718 0.02411120054485516 9 360 400
0.8440493212576952 0.6866885724771323 0.15619085743373184 9 360 473
0.560037173279876 0.5666383010617039 0.41642673850302825 9 360 580
0.5604054569967558 0.5390213800437312 0.4115198107991771 9 360 589
0.6689832115467023 1.5892026569837898 0.47403449756681093 9 361 169
1.0273462852396689 1.1118326349370709 0.04072835975586209 9 361 329
1.0121662933832591 0.9881338847977141 0.035309741100537195 9 361 365
0.752482220840206 0.6827675631933394 0.24171871237675946 9 361 492
0.5565327164322224 0.4459726176555885 0.396415436365136 9 361 620
0.6755302244495707 1.6725619444772601 0.4781187671493661 9 362 132
0.6654952602775972 1.6113751059118075 0.47792998991361235 9 362 159
0.6619015246328896 1.564027500195924 0.4736442864235233 9 362 180
1.0185634683002385 1.1068574889136333 0.0438940948070361 9 362 331
1.0128041781620971 1.0413381734112406 0.03874385476277653 9 362 350
1.0124341505241088 0.9550183966648599 0.02479608614268347 9 362 374
1.0070101890062064 0.9168836405030585 0.023854440148300515 9 362 385
0.998139604901185 0.8505001915418573 0.02164839875464808 9 362 404
1.0087588611245801 1.0600188244598343 0.04114572147112794 9 363 345
1.0138126094073614 1.0192654065486804 0.029328976556948216 9 363 356
0.9827705092007748 0.9044165787762489 0.04111401231606626 9 363 391
1.0080573546269396 1.0916759524345143 0.04241494791956901 9 364 336
0.5619564639229018 0.5902957380259262 0.40422515949828486 9 364 570
0.6652028709492657 1.658716517766081 0.4764652150892701 9 365 138
0.5609354055717908 0.504595849724228 0.38729343294782237 9 365 598
0.9871012148903291 0.9985806920483746 0.03836576806573899 9 366 364
0.9960788037815584 0.9594407692650099 0.02274500960596404 9 366 374
0.9825713671554994 0.9284425963138466 0.03110461680501686 9 366 384
0.5597780407925763 0.6230257987714637 0.4047719061296311 9 366 559
0.5658235108360279 0.3865678964220509 0.3588579155530869 9 366 633
0.9949753223765407 1.087578058741454 0.040744550681032665 9 367 338
0.7826717944519086 0.690169121185688 0.18770568802480336 9 367 482
0.55952226520457 0.4501383350090009 0.3722255282511808 9 367 615
0.6417784518918127 1.56831624473986 0.47514182115532166 9 368 178
0.6363771340213606 1.552243033973701 0.4778795509000967 9 368 185
0.9999415930066688 1.0999927147997623 0.03311656584436795 9 368 334
0.9864651060663416 1.061765310328151 0.04026580664851709 9 368 346
0.7060423003251084 0.683615392276332 0.2598831991024395 9 368 500
0.6649145046092837 0.6856756194115117 0.3018596777491862 9 368 509
0.649571941773073 0.6818402429610897 0.3167371261870213 9 368 514
0.632943344434017 0.6825058475475648 0.3336804397613382 9 368 518
0.6093648726633758 0.6921476704989618 0.3591820199214739 9 368 521
0.5625010660070029 0.5270794868754801 0.3785869930801311 9 368 589
0.6611608281527852 1.7007909323097878 0.4748141526331222 9 369 119
0.6452158369829353 1.5956040482447915 0.47307569660659077 9 369 166
0.8291505999402662 0.688599401737366 0.13169208338325245 9 369 473
0.5595346510745653 0.5595978429321158 0.3834860990134017 9 369 579
0.5643911700843356 0.38375436046396705 0.3485806568978176 9 369 633
0.6535769587262021 1.6802021116888186 0.47580536949538565 9 370 128
0.6367727417136546 1.5816553113964789 0.47606157488693057 9 370 172
0.979921955896246 1.0806301279704993 0.040725919399229316 9 370 341
0.9746771384691146 1.0507753929533452 0.04096041346045376 9 370 350
0.7467223676828705 0.6887465981152436 0.21124689054706014 9 370 489
0.7272131560758837 0.6893220770331856 0.23122120583586847 9 370 493
0.5635477853379272 0.41251219297229724 0.35059320115989134 9 370 624
0.6437887256974881 1.637677210928458 0.4752958505462509 9 371 147
0.9865626762305613 1.134109931126284 0.038424139751587205 9 371 325
0.96648711598848 0.9684229364133754 0.030480111722289482 9 371 374
0.9632330221476617 0.9122362994183093 0.024153724450325376 9 371 390
0.9432274712680537 0.8847970963824873 0.039888254037474535 9 371 400
0.5646356694155094 0.4000522228477248 0.34358479445710643 9 371 627
0.5620970706624782 0.673949002353265 0.3896476411258394 9 372 539
0.6362012467317144 1.6306617284961915 0.47545254852995567 9 373 150
0.620900129829802 1.5324496368516796 0.4741909849623961 9 373 194
0.6278252935423793 1.5127841137811477 0.46366117307773147 9 373 203
0.9637494369467363 1.053289538781265 0.038488880760955135 9 373 350
0.5627302430878292 0.43817443663224864 0.3445794978136516 9 373 615
0.6369846553967652 1.6698796535052292 0.47825077440230934 9 374 132
0.635679403625405 1.6525114959591387 0.4765793001476675 9 374 140
0.9383010488742485 0.9354204055385633 0.03956689634019872 9 374 386
0.5630803909923369 0.6353633891473863 0.3747256460294932 9 374 551
0.5626288077553934 0.5319047727214352 0.3572094707252138 9 374 585
0.6271269069878778 1.504222621641712 0.4563599579169346 9 375 207
0.6340244755505161 1.4953928760026836 0.447676112821322 9 375 211
0.9607736131601281 1.1329289475261954 0.046047271019021174 9 375 327
0.9501468998390448 1.0256592329332344 0.03833509436640514 9 375 359
0.9441968600924378 1.0067407160195292 0.04119593840656033 9 375 365
0.9411266765393365 0.9444683977220288 0.03350967506349267 9 375 383
0.562230898754358 0.6708432659877677 0.37815206343701835 9 375 539
0.5663027748838467 0.4890705368633905 0.3422180718354064 9 375 597
0.9420066393663435 1.0591751746111624 0.0479622281190446 9 376 350
0.9445798301082604 0.9675059985917311 0.029231380721180145 9 376 376
0.5648389667008629 0.6586382856771439 0.36967738325864863 9 376 542
0.5654125076859138 0.6038322938302879 0.35948133593596854 9 376 560
0.6336489319130153 1.6938449883301019 0.47633300475354357 9 377 121
0.7018506609066757 0.6849107251545794 0.22782306510401806 9 377 498
0.6791035606562785 0.6791799023726957 0.25052677908812515 9 377 505
0.6361178612183821 0.6838593234751318 0.2961576973679949 9 377 514
0.6056967903589217 0.6865595804565648 0.32834328676321656 9 377 521
0.6200329779770988 1.6105217665945366 0.4726711281023319 9 378 159
0.791461479865184 0.6916947829801448 0.1311925044643445 9 378 477
0.5668073171092924 0.6002794050603947 0.34999913229885093 9 378 560
0.5672323434189174 0.5628607827734644 0.34294922337569367 9 378 572
0.6118415346737023 1.5902771990959912 0.4744664911506704 9 379 168
0.609316557335271 1.5704736983833174 0.4736063494885817 9 379 177
0.9476754270022711 1.1116532975004525 0.03728534242218684 9 379 334
0.9289528359039749 1.0036905064344 0.0377972651681755 9 379 367
0.7483536252303593 0.6895580977525373 0.17161787791495686 9 379 486
0.5653745399065069 0.5322590399626952 0.3357281043187468 9 379 582
0.5666131397034562 0.5025510452247155 0.32916395575605906 9 379 591
0.5661635207157429 0.39619199688453044 0.3107877076282921 9 379 624
0.9400424429761034 1.0827398457906028 0.035491522754722116 9 380 343
0.56259508538877 0.4863716370341675 0.32671852340214214 9 380 597
0.5636832245591612 0.4742484926868702 0.31959998214710295 9 381 600
0.9379759382557835 1.1373842140003747 0.03808172568732293 9 382 327
0.9244487525336214 1.0697555992143253 0.04029018535454121 9 382 348
0.9273250836417222 1.0448058730269345 0.03276982308181253 9 382 355
0.9143834924445331 0.976529281729918 0.0342416642689467 9 382 376
0.6087086956527274 0.6854314532442132 0.30592677996240836 9 382 519
0.5585285379885325 0.42025611851220956 0.31155533203013386 9 382 618
0.6166610475816783 1.6968156366211662 0.4756393175655389 9 383 119
0.9190710657122956 1.0092070980361734 0.03043797680817595 9 383 366
0.5658414039016292 0.5393808342457623 0.3213632935864543 9 383 578
0.5957220288562574 1.576987900814859 0.47313788439455684 9 384 174
0.6067310979726072 1.4965287682099744 0.446861811293882 9 384 211
0.9196962372330721 1.0501011746085822 0.032450948006006675 9 384 354
0.9015207873230668 0.9806279877036257 0.039283300243542874 9 384 376
0.9010789664174466 0.9249328954128988 0.029692784439050435 9 384 392
0.7295779909497206 0.691527572198545 0.17042322252151454 9 384 488
0.5993426490271079 1.6120516422041218 0.4724196688732616 9 385 158
0.5876835149851947 1.5422473692904937 0.4690266449675622 9 386 190
0.688814341854983 0.6894398978121002 0.20522039065083897 9 386 497
0.6559442284971515 0.6851290956498817 0.23971851034414526 9 386 506
0.5644211008099308 0.5653866770433078 0.3161608594799872 9 386 569
0.9050472308592812 1.0470890051507669 0.03355328682255587 9 387 356
0.5653005651134244 0.5062244348953177 0.3005838487545045 9 387 587
0.5953701699936879 1.6358113625515514 0.4714431800191192 9 388 147
0.7403585862217148 0.69035629450016 0.14135679198922735 9 388 485
0.5905070081042546 1.624812297372289 0.4714929691063734 9 389 152
0.877417661506704 0.9980760838311764 0.045094391514476584 9 389 373
0.558181208906887 0.3936777457518248 0.2798181443247527 9 389 623
0.6069662219701801 1.745150746639887 0.47264439220468746 9 390 96
0.5968067001508424 1.67667559210511 0.4710342627163858 9 390 128
0.8997023482765092 1.125609234277761 0.03978922473872526 9 390 333
0.6837186305602265 0.6894703596870244 0.1940346172655092 9 390 497
0.5662357575772694 0.5901718820178198 0.30343343314281657 9 390 559
0.5642663678462216 0.47422776747769024 0.28414226819712396 9 390 596
0.5909833318725588 1.6467001900197626 0.4686353235882059 9 391 142
0.5848923496094588 1.6056536560746062 0.46766374614473527 9 391 161
0.5839430528320957 1.5585263378676153 0.4599544314037929 9 391 183
0.5784281580438434 1.516828010515536 0.45823341725144284 9 391 202
0.5857571518652862 1.5040242518384146 0.447861891609453 9 391 208
0.8853817451991435 1.0489252041861334 0.03653442807038765 9 391 357
0.8869538469792297 1.010872017220116 0.027758161628657074 9 391 368
0.6128241226642941 0.6857708870596957 0.26649746640932204 9 391 515
0.5909479845399582 0.6788230529740359 0.2890742650457596 9 391 523
0.5760583050707225 0.6820811416577405 0.30592291554324325 9 391 526
0.565671700227107 0.6411165516012108 0.3058311789129551 9 392 542
0.5559168216430286 0.5570784918587876 0.3008542728985497 9 392 572
0.5617437217383159 0.3781228374068728 0.2611428969290015 9 392 625
0.8909499590256864 1.0702249379114335 0.025060112475353113 9 393 350
0.5662906094808183 0.5037157592818636 0.2756282856041712 9 393 585
0.5930510990282326 1.7249142168847538 0.47141350852608377 9 394 105
0.565913210613491 0.6325655913042411 0.29628507244017 9 394 544
0.5623855204035184 0.4707244785343909 0.2697951187312415 9 394 596
0.560144154382084 0.41379542965590943 0.2615791735404871 9 394 614
0.5887210876148928 1.7058978577106512 0.46943891959081263 9 395 114
0.6547160897832371 0.6871037863169831 0.2045563637558243 9 395 503
0.5900645281436826 1.7433156420322646 0.47184166831625785 9 396 96
0.584992950469721 1.6828854082583962 0.46603621838669806 9 396 125
0.5720062102492698 1.5372869056191902 0.4528996986500671 9 396 193
0.859249341269114 1.0021492482718823 0.03320896312840649 9 396 373
0.5613508539708973 0.49841709089561526 0.26824174985333116 9 396 587
0.5776441994396491 1.6277907143877213 0.4605553426160198 9 397 151
0.8746622243720814 1.0741991405674607 0.025072709172526908 9 397 350
0.5659966225332727 0.5853246748788759 0.27561065194718704 9 397 558
0.5631361610148355 0.5500085035326262 0.2720881045450998 9 397 570
0.5797037931275445 1.6644539511530656 0.4588170388814259 9 399 134
0.5716342004618239 1.5402805836016116 0.44409941607737213 9 399 192
0.8745212245907668 1.1404428771101989 0.02851645647170198 9 399 330
0.8655638485361081 1.1131253226723743 0.033319475076153404 9 399 339
0.5782376607695886 1.64586172862826 0.45367687224955455 9 400 143
0.5766095228425662 1.6098175179892813 0.4485848865773163 9 400 160
0.8519537180920063 1.0505254724081374 0.031935515953178895 9 400 359
0.6237486025635004 0.6839688565661333 0.21787103692704157 9 400 510
0.6059370527153702 0.6856099378730296 0.23819178521808104 9 400 514
0.5747795356775145 0.6833131980464651 0.27274643020291545 9 400 523
0.5606428722187768 0.5359003165835483 0.2603204324644708 9 400 574
0.5594084463319704 0.43904007011121715 0.24310922595621176 9 400 604
0.557389234481624 0.404528491582816 0.23875076204604762 9 400 615
0.8529430364563906 1.1096894974486045 0.0375633625368752 9 401 341
0.8564569858444828 1.0854592318270821 0.028933857360691873 9 401 348
0.566499786689548 0.5832565255522331 0.2588714894043518 9 401 557
0.5761346052681154 1.6999267396524398 0.460036159407065 9 402 117
0.5708424085176682 1.5969451095247842 0.44609595459136964 9 402 166
0.5710234039628641 1.5735017885416558 0.4413560100853018 9 402 177
0.5770832444730334 1.735112903165921 0.46258790590411536 9 403 100
0.8484397506575676 1.0840816713408894 0.02841745330437484 9 403 349
0.6871646476696518 0.6911364598899057 0.13501439729069653 9 403 492
0.5903222555436907 0.6828424973706526 0.24323324401810753 9 403 518
0.5595543970246059 0.4908115112946888 0.24083676070823845 9 403 587
0.561654547723416 0.43878901151507854 0.22835272768947124 9 403 602
0.5742554230779 1.7166646846785731 0.4590174619747247 9 404 109
0.8567674710887803 1.1276807232991668 0.022778953942444113 9 404 335
0.6478435884123369 0.6901823017236868 0.17520730079833458 9 404 501
0.5561943984471973 0.5545669587514882 0.2530481894418519 9 404 568
0.5746534706042458 1.6866630786031442 0.44948911789123613 9 405 124
0.5727630518755038 1.5421256957938767 0.42336725692415245 9 405 192
0.8366310715792658 1.074023314488708 0.03059141563156409 9 405 353
0.6403888868312699 0.6852213150949809 0.17851787703376898 9 405 504
0.5686848672573656 1.6318566382435162 0.44232374210483494 9 406 150
0.5719221531906683 1.6134523274494286 0.43500219619326286 9 406 159
0.8481265183250728 1.1230586353284113 0.02240589100347523 9 406 337
0.573880695177185 1.5776888994279623 0.4224124959374338 9 407 176
0.8427713679206812 1.1569794934838802 0.030573423076946993 9 407 327
0.5523766931582508 0.5514042968910312 0.2448039231217236 9 407 569
0.5751273818068199 1.6799290503439095 0.43787346909007785 9 408 128
0.5758230733546211 1.6592625049937855 0.4329823552639047 9 408 138
0.573605845114481 1.6102367695780466 0.42583693846304493 9 408 161
0.8347354036515553 1.1394112349831798 0.03171912263531773 9 408 333
0.8321393348138015 1.1593333148198564 0.034041685183687775 9 409 327
0.8274792585190549 1.111925234597359 0.030013863485811587 9 409 342
0.5704701910148728 0.6777687681421749 0.24094431918830894 9 409 523
0.5588562851667579 0.5129311662741712 0.22163352185618912 9 409 578
0.5670674482981334 1.5144587155215339 0.40768390492220363 9 410 205
0.5739563991952582 1.7201577513569504 0.4374461672628047 9 411 109
0.5731879085947965 1.6579273398526184 0.4258877938644723 9 411 139
0.6469400772686419 0.690581987194008 0.14649266443892017 9 411 499
0.5631645873697105 0.6255152654017947 0.23096034821238143 9 411 541
0.5716692949474356 1.7423248900398227 0.4413045097664259 9 412 98
0.5719009022015451 1.6851769924316522 0.4295557168782136 9 412 126
0.5712659784045342 1.6305563428292609 0.4193261424940222 9 412 152
0.8129421147061315 1.0861980858234257 0.02785074307570845 9 412 351
0.5990685517734757 0.6823196641490757 0.1964111927310559 9 412 513
0.5565228432812653 0.5827962294955701 0.2260903688117637 9 412 556
0.5740364581464229 1.7089103251756974 0.42854750992333157 9 413 115
0.5711407829163996 1.6630105407485125 0.41937017781022146 9 414 137
0.5682748182589906 1.559760942366121 0.40184408336112076 9 414 185
0.5677297962720862 1.539935903732472 0.39847268694589943 9 414 194
0.6416301593642899 0.6884406721842029 0.1393364914800337 9 414 500
0.5781070782363209 1.7444429563173303 0.4210758114489652 9 416 99
0.5742960630296088 1.6026178588998872 0.39666829488879474 9 416 166
0.5709713964416666 1.5825858298188025 0.39651578089383777 9 416 175
0.5941656619533415 0.6822650571567628 0.18553881289055285 9 416 513
0.5702058915418766 1.6260061607426772 0.4029051509159558 9 417 155
0.5726400029074908 1.7193128607107633 0.41579517075515904 9 418 111
0.5714366206624836 1.6690884914582573 0.40691161390164843 9 418 135
0.5674747760677878 0.6835049845847532 0.2091950167268466 9 418 519
0.5744549188224419 1.687062265966206 0.4036543071526988 9 419 127
0.5765428317766252 1.6088400064687076 0.38160102841113663 9 420 164
0.5626586884415414 0.6476181757058743 0.19933225999551651 9 420 531
0.5564861298325123 0.5794590194044716 0.19262183991531634 9 420 554
0.5739985324575873 1.7108944021906842 0.4024097916391831 9 421 116
0.5756378763488492 1.647983084098696 0.38737382872057546 9 421 146
0.7891877173997555 1.1681917556957968 0.0311230914882783 9 421 327
0.5744360597870608 1.6652478634160754 0.38900109638898406 9 422 138
0.780179481969749 1.14188591760544 0.0318855007300578 9 422 336
0.5811758312551625 1.610748633626144 0.366035074748039 9 423 164
0.5803793272107322 1.5662506220036132 0.3576877882507574 9 423 184
0.5831319874811192 1.5462490996005622 0.35017393558234566 9 423 193
0.5765949077679338 1.708955910732522 0.3887265229708876 9 424 118
0.7792931599955091 1.1512276422340038 0.025686016667394007 9 424 333
0.5751660267936826 1.7485254733886155 0.39539982546730856 9 425 99
0.5787268670390988 1.5912631903015308 0.35791721703234547 9 425 173
0.5867235723527383 1.5403437345547544 0.33745144928172266 9 425 196
0.7623404079885094 1.1019831915284415 0.0313112091734693 9 425 350
0.603465522881079 0.6847564225604448 0.13672882053740354 9 425 507
0.5781652318916628 1.6420283510112048 0.3658267641925823 9 426 150
0.7654731164566049 1.1261832890612342 0.02799288182333526 9 426 342
0.5660343256569984 0.6848116354358902 0.17393820405275817 9 427 516
0.5781674324231809 1.7219605692236344 0.37588070258311523 9 428 113
0.5844549886826513 1.699234184351531 0.35633135828640516 9 430 125
0.580775156773645 1.5137198159599867 0.32105096933878174 9 430 208
0.7466692054036774 1.164977402382933 0.036447388933794844 9 431 331
0.7428143469744652 1.122342521724101 0.03204214072909717 9 431 345
0.5801737300634886 1.5940641426610922 0.3318923725803571 9 432 173
0.5801186284657603 1.5737931683386999 0.3275765314059913 9 432 182
0.5845690212278492 1.7157966986985542 0.34923889417308884 9 433 118
0.5764492597212457 1.5487471082963506 0.3231128825216092 9 433 193
0.7377207342663454 1.1670038470882667 0.038882452900177 9 433 331
0.583100214205061 1.7014353219261986 0.34088765584169467 9 435 125
0.5796202233661261 1.5977418133352397 0.3189658382539473 9 436 172
0.5802385882633803 1.5246297338197223 0.30213923628006256 9 436 204
0.7162529159175608 1.1013325513736907 0.0377751134622768 9 436 354
0.5878934104539422 1.7317299391001435 0.33439082902669726 9 437 112
0.5756065695137088 1.554510531693114 0.310888861459351 9 437 191
0.5801355996566351 1.6432697940832535 0.32110918209980266 9 438 152
0.5762144999353785 1.62036277633686 0.32101891473639066 9 438 162
0.5790235167832282 1.5848541168747978 0.30960439390803174 9 438 178
0.5742141373524152 1.5641555293666687 0.3074734460268298 9 439 187
0.576466830800421 1.5391327477687389 0.2990537314215296 9 439 198
0.7323933372634712 1.164161090187514 0.017399861371099945 9 439 332
0.583944616607224 1.7577898000482561 0.33450972189364325 9 440 100
0.7259117112591678 1.1533340311997413 0.018630287751803642 9 440 336
0.7173787823810625 1.1403177559996043 0.026625636261382146 9 440 341
0.5848025257634784 1.7093233699759152 0.3190175908570203 9 441 123
0.6980183145040098 1.0748873051989007 0.03219129925369746 9 441 364
0.5821239114884673 1.7483472158574886 0.3240205669570442 9 443 105
0.5779098373652035 1.6092278500880546 0.2981269274410705 9 443 168
0.5837923699174741 1.7500197652190819 0.31504209162887276 9 445 105
0.5772060300957673 1.70074420660363 0.31240952812763867 9 445 127
0.6994137171709038 1.1445096462916373 0.0277167146229913 9 445 341
0.6864058023855084 1.105633056315269 0.03577298313109312 9 445 355
0.584662702525053 1.7314923292068358 0.3060735488628459 9 446 114
0.578224288475574 1.686245386427828 0.30415205476311424 9 446 134
0.5793250904375096 1.668896487624837 0.2987701814223265 9 446 142
0.5711903746309717 1.5661991541709623 0.28597802435525543 9 446 187
