2.4385815716947654 1.68506045079749 0.44835682017950607 9 91 169
2.445074380051868 1.5700061119557143 0.4427417582705959 9 91 193
1.1802779049701664 0.2236630942888591 0.8597003024451553 9 91 611
1.1515271027445808 0.22041472229714243 0.8668551318729762 9 92 618
1.2101876535196978 0.22944712824507962 0.8394591094891019 9 94 602
1.1827281871443265 0.22667417256956046 0.8430528761922227 9 96 608
1.146067039632027 0.22351173769672927 0.8564895395338253 9 96 617
1.089446061780607 0.2110976963792761 0.8770169811461666 9 96 634
1.116244872916025 0.21855788102705898 0.8642785600024726 9 97 625
1.0787400772116182 0.21408371103399082 0.8750461647658306 9 98 635
1.095938780859082 0.2276324792445723 0.8629554877162007 9 100 626
1.089837460532746 0.21935456246621987 0.8649961316677598 9 100 630
1.1948384045708413 0.23432049224617257 0.816207210065757 9 103 601
1.5025550181982834 0.25390204687558837 0.6954690708314731 9 104 541
1.44467188347441 0.2495984826223856 0.7175483173102055 9 104 551
1.2491698613648032 0.23915273409704252 0.7888907839812918 9 105 588
1.1347440303183671 0.23225758234264626 0.832800522115037 9 105 614
1.0985415398924427 0.2299661859463531 0.8466893061716323 9 105 623
1.0837611569979806 0.22833933409502416 0.8523373411204656 9 105 627
1.4236431592444878 0.2528270070363723 0.7183504864410868 9 106 553
1.3994105316568817 0.2526501921674633 0.7277360840696656 9 106 557
1.1078750485770104 0.22939749216422145 0.8337277404423065 9 108 620
1.4989865664579587 0.2550245333396326 0.6776860212173763 9 109 540
1.0698146093797472 0.21860953762358992 0.8452039813643751 9 109 632
1.4623401933613212 0.2561925837450294 0.688340921593213 9 110 545
1.4414654079597706 0.2455027173188693 0.696227122117355 9 110 551
1.2018795302012886 0.24253630625707046 0.7907738420393307 9 110 595
1.3371818749231819 0.2514443264713955 0.7269048936627249 9 113 566
1.1755890532359572 0.2443732985545095 0.7914113553652942 9 113 599
1.1454677196184622 0.23575146634749178 0.8031832604579773 9 113 608
1.1267757169483592 0.23288056983648286 0.810574037558611 9 113 613
1.0908380124055228 0.23040049821283137 0.8248887145575934 9 113 622
1.0692694960824058 0.22757922216826554 0.833433832588584 9 113 628
1.0421870506529463 0.22646733076666403 0.8442474393824806 9 113 635
1.2236687333354705 0.2438687235345518 0.7687534856495469 9 114 589
1.2903056252118013 0.24619249405127253 0.7349841765062834 9 116 575
1.2514962175178717 0.23654885337150677 0.7504149802094118 9 116 585
1.1580990608918693 0.239096572898837 0.7851894509342661 9 117 603
1.1802343988706787 0.23908902850564573 0.7728301039833925 9 118 598
1.057170092168233 0.228300028082693 0.822924911667117 9 118 629
1.394639690118624 0.2538543001865796 0.6816747063417872 9 119 554
1.0615780602834963 0.22908835533065108 0.8149311419939124 9 120 627
1.2683031698892524 1.9308457325604282 0.7854292288593888 9 122 39
1.3155962885327408 0.25621957421616015 0.7035451209308583 9 122 566
1.2084561700065712 0.25306946301961597 0.7482015031181146 9 122 587
1.1118684179720952 0.23761361537027548 0.7879916286326263 9 122 612
1.081393890329476 0.23763452432665266 0.8007275331908257 9 122 619
1.4344671385942462 0.2560940079796701 0.6500235054857744 9 123 546
1.1752880533431107 1.9449111082822195 0.8162331428240472 9 125 22
1.2103939182134034 1.9447487212154833 0.8013527533067696 9 125 27
1.3374602800335298 1.9308869751587887 0.746989044951843 9 125 48
1.3212514183454447 0.2568332040325787 0.6903136079394132 9 125 564
1.2883518769536473 0.2526765785586418 0.704095246949447 9 125 571
1.2351665324450416 0.2525720774895863 0.7266257149901538 9 125 581
1.1200981241575776 0.24494894861832583 0.7750904202081821 9 125 607
1.2501434917263081 1.935642953004236 0.7811426064281776 9 126 36
1.457682988504645 1.9216975968115237 0.6922724656294171 9 126 64
1.1920259933774389 0.24879373180905495 0.7379600234108467 9 127 590
1.1578724928077453 0.24212232660521193 0.7523064470335854 9 127 599
1.085391340024572 0.2389437718447054 0.7831757822388824 9 127 616
1.3053496883606974 0.2529874781103407 0.6860353385944473 9 128 567
1.1359608138019155 0.24684560271728517 0.7585552922880845 9 128 602
1.073040795096401 0.23744127321525932 0.7852165022405064 9 128 619
1.1866101014276065 1.9417107014096588 0.79968768117447 9 129 26
1.4068082338789751 0.25529952449444937 0.6387090963593305 9 129 549
1.035282360161651 0.23660451160655938 0.7982871847092332 9 129 628
1.021741097160274 0.23455761662036023 0.8040500257973181 9 129 632
1.1883471118666786 0.24817838267075443 0.7292758303636753 9 130 590
1.2472879062580928 1.9329334215376441 0.7670695191641862 9 131 38
1.3502884854255224 0.2581501765801131 0.6557353359801616 9 131 557
1.2352722417117783 0.24608775208197686 0.7053356934635711 9 131 581
1.099539620992411 0.24599862031549025 0.7611728452862825 9 132 609
1.0798903870328662 0.23428589211374273 0.7692985564901467 9 132 617
1.3041516273065372 0.2596841566339192 0.6685629205096469 9 133 564
1.20140650927243 0.24623332517752194 0.7131618620912102 9 133 587
1.0540308940791774 0.23024202279713046 0.7772667535683673 9 133 624
1.0080880455404735 0.23787534841078517 0.7977591220553077 9 133 633
1.3024131248131765 1.931691979156523 0.733503583941362 9 134 46
1.405724895922925 0.2664464565052116 0.6203383490453014 9 134 545
1.2364222514594918 0.2601081292623486 0.6947981756707472 9 134 576
1.230251478602315 1.9380013907352671 0.7625659301818262 9 135 35
1.5959205397605536 0.27669663562213276 0.5325641325881969 9 135 515
1.5785535872049579 0.27363709207521536 0.5401378762210161 9 135 518
1.3245348755984927 0.2657437632346462 0.648695530111473 9 136 558
1.1477193018088936 0.2569942753668104 0.7270685776560291 9 136 594
1.233154249424758 1.9351309769692953 0.7550489261975302 9 137 37
1.266664542505484 0.2618929965497623 0.67068523162285 9 137 569
1.0263754833128793 0.2411860843872402 0.7773012272220021 9 137 626
1.1496265468941582 1.94491272999668 0.789917214980809 9 138 22
1.4186364943826903 0.2701462201952127 0.5991262359050705 9 138 541
1.3036782390413753 0.2723925772659328 0.6471599751521364 9 139 559
1.1411153636031024 0.2550855572113284 0.7197901457947989 9 139 595
1.1041220572120638 0.2516931721785318 0.7363410541305095 9 139 604
1.0698260608627412 0.24756369910518616 0.7516437783757213 9 139 613
1.15292503774005 1.9374649706127336 0.7822945791526407 9 140 26
1.1354344100501483 0.24779813100387083 0.7186619870862953 9 140 598
1.3782198690024787 1.9304028934843482 0.6731157649450762 9 142 57
0.9876859073232493 0.23789953650016038 0.7790060475203722 9 142 635
1.3416528532559988 1.928326935300909 0.6864285260037237 9 143 54
1.175503992048546 1.930549461966964 0.759843894464808 9 144 33
1.3059864321607249 1.931816907712962 0.6997072838408301 9 144 49
1.1857083617047555 1.931135654009764 0.7460911555829937 9 147 35
1.1173209121463217 1.9408723261031053 0.7726916285332839 9 149 22
1.1118581721634175 1.9410054058443742 0.7665673693424803 9 152 22
1.1417156024043082 1.9370113558910018 0.7521240361500846 9 152 28
1.1875368051688868 1.9316431475516977 0.7238411025033913 9 154 37
1.2487663388573313 1.9285285376194758 0.6942010919366283 9 154 46
1.1521288199674564 1.933071891748515 0.7043816719254201 9 166 35
1.0977874719560168 1.9300044806101257 0.7047338556197076 9 175 31
1.1420152725452564 1.9308588964937328 0.6815141633758011 9 175 37
1.0668048080972607 1.9315444503561383 0.7181442763412597 9 176 26
1.0992290835875442 1.937249052535614 0.676780527911538 9 184 31
1.1213219886142418 1.930009104232247 0.6643193629404986 9 184 37
1.0389150737690942 1.9372076808451637 0.7067233291948309 9 185 22
1.0159038732022554 1.9340409723184733 0.6955895751551268 9 193 22
0.8239825947928641 0.7555698502347312 0.7257213456340208 9 196 482
0.7836508207446984 0.7587942515512467 0.728813021178897 9 203 487
1.025017506968946 1.9393657268662725 0.6543750255527037 9 205 25
0.767977130859532 0.7466238583857225 0.7286203820348574 9 206 494
0.8194385286128678 1.4154423582976172 0.7348519670774014 9 208 223
0.811241144578793 1.3077716787998608 0.7328622438502921 9 208 268
0.7542803571852799 0.7277040338160812 0.7240422381192834 9 210 503
0.7964424060621198 1.3731572795076432 0.7348540696348507 9 212 241
0.7531206242298434 0.7563964150051343 0.7208242308586325 9 212 492
0.7834054764923886 1.4550069199893352 0.7372161690358396 9 216 206
0.776504738673738 1.408580227175991 0.7383777401686438 9 216 226
0.7859069047456686 1.4346187962262211 0.7315381264870542 9 217 215
0.7731970196727891 1.3317822256007337 0.7325114251470005 9 217 259
0.772459655855261 1.364728078182099 0.7324220904529012 9 218 245
0.7704427489836048 1.3107757177001684 0.7300295899579831 9 218 268
0.7481967740487616 0.7495303893970304 0.7029990752833303 9 219 494
0.7464729697728572 0.7264083943309267 0.7025054926996249 9 219 503
0.7391170943420937 0.7172561021018654 0.7064867991874587 9 219 508
0.7666075234592964 1.406725937651125 0.7334214196397782 9 220 227
0.7677978246003709 1.3859554335411326 0.7312537330154043 9 220 236
0.7638076762894548 1.290041386093652 0.7272037515672913 9 220 277
0.7707901953523428 1.4553191590832588 0.7313680160546876 9 221 206
0.7437619964407469 0.7905572298785029 0.7027328922890526 9 221 479
0.7419384853793987 0.7782890362285213 0.7030398359615808 9 221 484
1.090378807361252 0.6712537742186307 0.46069432596559023 9 225 461
1.105429822850177 0.7093256234100693 0.4343488309869661 9 230 447
1.059090331850405 0.642198632748406 0.45975146986618687 9 230 473
1.053479857814075 0.6848978943559738 0.46269940668199494 9 231 461
1.2953239363800622 0.6894930311449496 0.3002705820654836 9 232 430
1.0893599198316553 1.0980419464505116 0.46160971300216236 9 233 331
1.0414439795004657 0.6792969613600799 0.46263501076126134 9 233 464
1.0728351102615237 0.7044149824731885 0.43990646875462236 9 234 452
1.0308453240949298 0.6831251693826255 0.4623858656658255 9 235 464
1.010591237361786 0.6493040290110104 0.46961737175561746 9 236 477
1.088869073198158 1.0976074959792435 0.44685866861563905 9 237 331
0.9990673449003082 0.5780798584846552 0.4682819071440658 9 237 500
1.375751069365539 0.6895446489427335 0.21968283348718964 9 238 421
1.0863956114414441 1.0881894213639338 0.44024369550297515 9 239 334
1.0068197610160399 0.6822943315468954 0.46338267904942787 9 239 467
1.3338588383199754 0.6847602467117049 0.23835974430732798 9 240 426
0.9863251629977678 0.6294281145857201 0.46951241019433876 9 240 486
1.0819375810512464 1.0823475755918017 0.4352242471755192 9 241 336
1.081669714829502 1.1206682673065256 0.4345266345833414 9 242 324
1.010878127479153 0.6948814495597765 0.45029856352671693 9 242 462
1.3274826995545381 0.6854741555675703 0.22901390478607264 9 243 426
1.0733089314621183 0.712284835108841 0.40510538576515054 9 243 448
1.0629936057257567 0.7101177607755549 0.41200199640187996 9 243 450
1.0820753221423667 1.0915202940717281 0.42438822103004825 9 244 333
0.9787419755365621 0.6929067285770092 0.4646574455096151 9 244 467
0.9691055850223962 0.6677781703110309 0.46563688272935866 9 245 476
0.9669851793443707 0.659101524594198 0.46642697329195937 9 245 479
1.0737027419654637 1.1152367714409235 0.42435977262347624 9 246 326
0.952718449434719 0.6139138552510505 0.46907292586764626 9 246 495
1.0827437015419124 1.0877349036825776 0.41210608618489664 9 247 334
0.990842553051902 0.6980633277667456 0.4454670838091126 9 247 463
0.9666638422570073 0.6865190457466741 0.45764584627320004 9 248 470
1.0870876596936796 1.0800931063770527 0.40072852074131626 9 249 336
0.9366205098198652 0.6522990468267014 0.4685714765072172 9 250 485
0.9949518776424857 0.7066722975257458 0.42810078423691045 9 251 459
1.090712707112844 1.11466898148381 0.3853046223692007 9 253 325
0.9239432606135438 0.6570203379755419 0.46688650665592724 9 253 485
0.9093387118823919 0.5753720192546762 0.4706825406094942 9 253 513
0.9098061783518587 0.6345811166056049 0.4678210791681213 9 255 494
0.90673660132755 0.613929656816867 0.4683377676955016 9 255 501
1.071282222906822 1.1046958087796832 0.3827180853453638 9 257 329
0.9376684487512672 0.7016306842074649 0.44591361828926335 9 257 468
0.9169215684477261 0.6892076692845029 0.4561665818847662 9 258 475
0.894552929244022 0.6655943747625658 0.46675928776161923 9 259 486
1.2344960609699769 0.6889040959189008 0.21287981241918752 9 261 432
1.0769465973457188 1.0997304980954437 0.3584526569772011 9 262 330
0.9427870015973803 0.7119048458029484 0.42429626527561415 9 262 463
0.8679960888492886 0.6249257128767974 0.47186255518083886 9 262 503
0.8576874415700722 0.5831709190004257 0.47230969457786465 9 263 518
1.0755556933048922 1.0931642863579685 0.35094571993091694 9 264 332
0.865777408053205 0.6490271432931813 0.4646804637714861 9 265 495
1.144113616238825 0.6908051480606934 0.2574524623946246 9 266 441
0.929773744429631 0.7092867795950633 0.41857549981582376 9 266 465
0.8378621707143175 0.5650476371234882 0.4746392668005245 9 266 527
0.8952202026134362 0.7007458143664742 0.43986727745976606 9 267 473
0.8837269587145391 0.694181146783146 0.4478881276954141 9 267 477
0.8672004778557572 0.6867163167713409 0.4559553426664502 9 268 482
0.8304301425582503 0.5806792130149664 0.4743585449141329 9 268 523
0.8250884498991806 0.5121236139883877 0.47243915555901317 9 268 546
1.0672160631139314 1.084030875075992 0.3322842320021502 9 270 335
1.113815337026278 0.6871186289225506 0.26248514565805325 9 270 445
0.8202370823250977 0.6372340332242955 0.4762447034406474 9 271 506
1.4311200461566407 0.8143121659672999 0.023721127512763562 9 272 382
0.8547086797238739 0.6907145528258974 0.45117290718900316 9 272 482
1.067627643688374 1.1131375546530287 0.3223853669025236 9 273 326
1.4331698789601572 0.7790198308846872 0.013879627048504206 9 273 390
1.4122954707322604 0.8486881883724364 0.03086509191227904 9 274 375
1.4131397894984123 0.8273869730393068 0.028326538219112685 9 274 380
0.8269073192328567 0.6770483364763571 0.4639513335013088 9 274 491
0.8213328778755651 0.6557341653264195 0.46632756055467695 9 274 499
0.815248517256806 0.6255926577182143 0.4683102991749434 9 274 510
1.4021968024407172 0.9095280752094266 0.03893791075321351 9 275 361
1.070285560970773 1.108989544834876 0.3077470980922423 9 276 327
1.0738178605015805 1.0950715758238216 0.30377513618606056 9 276 331
0.8593425270198121 0.7072251844624653 0.43444247318354146 9 276 475
0.7900321652548574 0.6123565838360987 0.4794000773934972 9 276 519
1.3821224072063147 0.901384366399343 0.038524572528692236 9 278 364
1.3831826969434182 0.8762997623309833 0.035432255086119246 9 278 370
1.3909785146506284 0.9441436845119427 0.030441939190201328 9 279 353
0.8233167142966724 0.6969204607440884 0.45049974143386384 9 279 484
0.8150174841048199 0.6893534230016058 0.45628190104155175 9 279 488
0.7746799096794912 0.5252351711801543 0.4728167174696226 9 279 550
1.372366296170949 0.9360931903928209 0.0391845563433082 9 280 356
1.068913750932042 1.1086012548827446 0.28818024239049866 9 281 327
1.0139991545814047 0.690998262457752 0.293009921697462 9 281 455
0.7924905437874412 0.682653255048394 0.46614318897727003 9 281 494
0.7681574282381767 0.5617444029915668 0.4741624838872984 9 281 539
1.36735999060712 0.9489794689550103 0.03420753990707137 9 282 353
0.7716455225706305 0.649342039196059 0.4759395878034306 9 282 509
1.3587471723368891 0.8689273350886302 0.02855897426563092 9 283 373
0.7783586284795829 0.6624459979731931 0.46832081407942605 9 283 503
0.7680847016286103 0.6146712461264308 0.47202456974191853 9 283 521
0.7545825976977252 0.5451780071302048 0.4762717103881836 9 283 547
0.7740727154360194 0.6762753399438635 0.46946064446249514 9 284 499
0.8628875577544342 0.7148576043503609 0.3988118763446211 9 285 470
0.8378743004138349 0.706271745473122 0.4179257221865553 9 285 477
0.7589797408382377 0.6279642806484282 0.4734322663270397 9 285 518
1.0663891163691215 1.1117554194324657 0.2696452197378847 9 286 326
1.065794239143746 1.0918032445043022 0.2682502251609242 9 286 332
0.7647497426807759 0.6773753925575905 0.4699305588403745 9 286 500
1.33231746856004 0.9115948467427905 0.03338966277444122 9 287 364
1.3256646535339083 0.9773923515789075 0.0399309371291372 9 288 348
0.79714511685426 0.6990722445732444 0.4388530391525731 9 288 486
0.7369762280383354 0.607164307112881 0.4785725453963786 9 288 529
0.7282493961294103 0.5325419938074619 0.4785368303159313 9 288 556
1.325919409680662 0.9570060188850094 0.03278814232323701 9 289 353
1.067658399562883 0.6919516650105657 0.2161331946500913 9 289 446
0.7772170840643609 0.6976884121679414 0.4511840418407502 9 289 490
0.7375279428070851 0.5789747789740894 0.47195268511855415 9 289 538
1.315291397607977 0.9111050131629077 0.0319974284268052 9 290 365
0.7881690976977387 0.7027327326311462 0.43921050980745946 9 290 486
0.7517463909080184 0.6851587049565158 0.4670447823658812 9 290 499
0.9324085626163037 0.6906862251939532 0.31716027340817643 9 291 465
0.7404739266766709 0.6409789776942252 0.4684529675320871 9 291 516
1.3085495091322352 0.964363070764017 0.03256330907370808 9 292 352
0.7061423366176458 0.4521617773010932 0.4747710560872107 9 292 587
1.0656175136019057 1.0840070508770432 0.23802440451907625 9 293 334
1.3046870881866774 0.9849209806093178 0.03270524166066657 9 293 347
0.7761039747063052 0.7014252508364875 0.43807807611627925 9 293 488
0.7497808080945507 0.6929704403150196 0.45881293582074756 9 293 496
0.7177734061929515 0.6041128460445893 0.4764285991497528 9 293 533
1.0575228533379213 0.6896277755793636 0.20210331507649326 9 294 447
1.0263026254098042 0.6901202883127664 0.2278019935204194 9 294 451
0.8337511321419637 0.7052603242003376 0.3874743774017395 9 294 476
0.6985050277961846 0.39538006278463844 0.4685038149347909 9 294 607
1.0661799861046228 1.086962410925902 0.22928495034914498 9 295 333
1.289736850294067 0.9561584172020083 0.032211741218765466 9 295 355
0.6888120060255989 0.43515299543875907 0.4733504408413275 9 296 596
1.2716779576323438 0.9954080151567871 0.041062037960336806 9 297 346
1.2705568079815022 0.9564043328656945 0.038155593780588415 9 297 356
0.7331993829197354 0.6969760869154249 0.4587549694524119 9 297 497
0.7139596358464853 0.6356998778055934 0.4686996564941541 9 297 522
0.6864563788097617 0.40871626786099546 0.4692022972056171 9 297 605
1.0798975044230648 1.1180338869692936 0.20799850738247394 9 298 323
1.066594259472331 1.0966107078261114 0.21696459227447873 9 298 330
1.256389451108429 0.9752918994322415 0.04685905716050742 9 298 352
1.0697474143580072 0.6884083063103876 0.17400323119386152 9 298 445
0.8564002647779163 0.6931695223725091 0.3522128051343476 9 298 475
0.6980313363660249 0.6017384003541956 0.4751153604828924 9 298 537
1.072805577095883 1.088438381293199 0.20663247830551001 9 299 332
0.7700597942475382 0.709580092060655 0.4221267140173499 9 299 485
0.7141342066596219 0.6837427901734018 0.46631577592066953 9 299 505
0.6925826608700534 0.575359945888407 0.473576750190542 9 299 547
0.6778845422411843 0.4712437648094958 0.47553176043486534 9 299 586
1.0764177493845006 1.104726495871176 0.2008646679963031 9 300 327
1.2518532474173134 0.9989383876291282 0.038219376679475836 9 301 346
0.7596578049940912 0.7080916370629426 0.4234307702290303 9 301 487
1.2720257791818423 1.01375405504635 0.017725506319106188 9 302 341
0.6850338535791376 0.6335628551487431 0.47533717791975827 9 302 528
0.6691341354807712 0.4484404841284413 0.47015645201034295 9 302 595
0.6593823968618335 0.35157163433761296 0.4686550722352073 9 302 630
0.9643642727131465 0.6861763705122537 0.2404227734892863 9 303 459
0.8000893060076038 0.7049286007166372 0.3815594892524061 9 303 480
0.6939517726434634 0.6673155382659299 0.46772640356970496 9 303 514
0.6609580815653358 0.42452660386918495 0.47117847732982354 9 303 605
1.0676223664406588 1.102378365299072 0.19053772097993993 9 304 328
1.2357542464627955 1.0018768226878403 0.03734173287567888 9 304 346
0.6771441011819257 0.6112344261843763 0.47285533890514375 9 304 537
0.6732617917882417 0.6419926389803475 0.4758372149976975 9 305 527
0.7478721968377537 0.7082759644390741 0.4152700035719228 9 306 488
0.7184422922950986 0.7020697361161857 0.4398398446495402 9 306 496
0.7012295562129831 0.6951203254964604 0.4538705473050848 9 306 502
0.6571662423794129 0.52826114644463 0.47454163865516763 9 306 570
0.6592516224102438 0.4852718264555478 0.4683588117391816 9 306 584
1.0701869904507366 1.1220956531895012 0.17713771952408264 9 307 322
0.9553721674774733 0.6913215342646655 0.23155960226984762 9 307 458
1.220788856640464 1.000464345027039 0.030292671076930233 9 308 347
0.7523481999695629 0.7132141201737914 0.4046142735949583 9 308 485
0.6822040709520589 0.6911111949639683 0.4628220190156491 9 308 507
0.6435206245165535 0.5391245332339225 0.47706993139627596 9 309 569
1.2157998870166247 1.0318460055687968 0.027996038468211637 9 310 339
1.2085901139583106 1.0142820689015202 0.032428771665609535 9 310 344
0.8944239933721618 0.6900989120297589 0.27148348515145604 9 310 467
0.6463097176120463 0.5937065590026227 0.4768861027164817 9 310 549
0.646757797963859 0.5760936383480576 0.4746646262690797 9 310 555
0.6384285844970523 0.46332989202911967 0.47016490470379124 9 310 596
1.0578951660945721 1.0963366951061764 0.1673722287899282 9 311 330
0.990874423728499 0.6917883697392069 0.18349655913976015 9 311 452
0.6912101404880071 0.6946247102196283 0.44487670601475404 9 311 503
0.6658765975704135 0.6735446909340328 0.4647461945558091 9 311 516
0.6587661591476113 0.6411581573357251 0.46755740393582634 9 311 529
0.6298318080086809 0.3898406223391666 0.4665085709752217 9 311 623
0.6249967915031769 0.36761211090461954 0.46839863369522605 9 311 632
0.7214221971424313 0.707555977021695 0.41628884852576764 9 312 492
0.6348984095787191 0.49064054647312527 0.46917164929682775 9 312 587
0.6292938753329946 0.4426466790579382 0.4690355873967653 9 312 605
1.0759691391463695 1.1308017483478914 0.14623847334840856 9 313 319
0.6399920936231265 0.6630264366716012 0.47599383171256837 9 314 525
0.6852945414408167 0.701039418595772 0.43660025518679446 9 315 501
0.627497569752953 0.5632540750794509 0.4730078943303325 9 315 563
1.163920154664809 1.0453934501881876 0.045606428916324715 9 316 338
0.9566271666638082 0.6946441317825633 0.19189486720294635 9 316 455
0.6506638908815678 0.688115624285174 0.46236524461022 9 316 513
0.6168823043585314 0.5525994181673123 0.4744265011414752 9 317 569
0.6250462423220537 0.5053167010095863 0.46209931426255957 9 317 583
0.6755428204029033 0.7019550943718225 0.43472860626490184 9 318 502
0.6162400417602796 0.5377497296866122 0.4699756467092039 9 318 574
1.0725834640183762 1.12028187673915 0.12088846853241719 9 319 322
1.0612392836413467 1.1153198664936963 0.13050957510945516 9 319 324
0.9038594938663629 0.6885381066658796 0.22530297523628318 9 319 464
0.6389288972928833 0.6850173596106728 0.462135701988744 9 319 516
0.6015612211202135 0.43361560107286734 0.4684256401204083 9 319 614
0.7448994863003584 1.4944354177154908 0.45131612554716205 9 320 200
0.5966772340303875 0.4106902879768818 0.46687463165608567 9 320 623
0.8839422918783568 0.6807246109784206 0.23387995017632357 9 321 469
0.7309839004489935 0.7039914654279715 0.374305722586628 9 321 489
0.6949796104313264 0.7108666192640087 0.40751240488712437 9 321 494
0.5944980979916763 0.44663279441021086 0.46930037283471315 9 321 611
0.6696608158617194 0.7083363450710888 0.42650849135612035 9 322 500
0.6195156762131249 0.6705198895317862 0.4677292614915134 9 322 525
0.6230792155318547 0.684032473207796 0.4625545672917746 9 323 519
0.6050193651860254 0.5676003406112813 0.4661517127939262 9 323 565
1.0730007419967005 1.1231256791367996 0.09781822228964376 9 324 321
0.7264725294568872 1.733105511167321 0.4774298481000132 9 325 100
0.6159624218761914 0.6760743734699997 0.4612891034853164 9 325 523
0.5980742097679483 0.545611529509424 0.46317937089077243 9 325 574
0.5823171472326141 0.4446587554847753 0.4663920772819682 9 325 614
0.5786911280008862 0.3899205769384668 0.46364023068544413 9 325 634
0.6465695100437423 0.6998930375395227 0.43243682210650025 9 326 507
0.5997104309034406 0.6169578811618571 0.46617420122340814 9 326 548
0.5998540592294375 0.6027731963784904 0.46446422407113075 9 326 553
0.5919090300733845 0.524068288769182 0.4629918188587603 9 326 583
0.5954285398064894 0.5123928947971246 0.45846568122787557 9 326 586
0.5792728305942998 0.4289531729186843 0.46399485873090696 9 326 620
0.7196286169744832 1.6857010522163218 0.4718326390574582 9 327 120
0.5810492769381713 0.4608261921531078 0.46247370651556396 9 327 608
0.8865700862175006 0.6875515318031441 0.20242781669432963 9 328 465
0.6288281071830348 0.7014225717324244 0.4419128553558125 9 328 510
0.5878009473842339 0.5812254729301448 0.4628789314634123 9 329 563
0.569130759392243 0.4002809614981976 0.45978772409681024 9 329 632
0.6976484407420436 1.646507756912409 0.4778637535647148 9 330 135
0.6938924582097219 1.6363094579006492 0.4802008558191121 9 330 139
0.7100486055619333 1.4938107426686664 0.44906589064633984 9 330 200
0.8346579405897216 0.6843229388449161 0.24168530354715823 9 330 474
0.6829213003793109 0.7084382256785846 0.38543491293311094 9 330 495
0.6393174540692166 0.7014422894791037 0.4251682498678986 9 330 507
0.5825100296782372 0.5704478796066574 0.4631458674005735 9 330 568
0.5751597397193101 0.4858296793962702 0.46040495725753994 9 330 600
0.7096099849562139 1.756378807088716 0.47590142241206146 9 331 89
0.7081818233232093 1.7467704401045212 0.476141818637722 9 331 93
0.6999052326947206 1.7104093882390123 0.4764558371293214 9 332 108
0.5907908612160412 0.6656559163859286 0.4593903165671289 9 332 531
0.5878017600332743 0.6204924317330817 0.45703594880671616 9 332 548
0.5789484928381423 0.5458983042808843 0.4568117699964578 9 332 577
0.5661305812172183 0.4746933609327293 0.4606837639227369 9 332 606
0.566121466697038 0.45458999781778253 0.4583993717703656 9 332 613
0.7089529628419275 1.490020255130685 0.43601497296334557 9 334 202
0.6009586354797857 0.6984928919359175 0.44672249795495 9 334 516
0.6882668797848779 1.7198601133074756 0.47867322317253724 9 335 103
0.6872157808016428 1.657891584179184 0.4725112970554477 9 335 130
0.5725844452305582 0.6072019422914129 0.45953627825750054 9 335 556
0.5680229411602171 0.5266070051495775 0.4545415276814795 9 335 586
0.683032530250161 1.6938524455451218 0.4773544442484712 9 336 114
0.6836517859822133 1.6780824779600605 0.4749387808706167 9 336 121
0.6805689432817406 1.6174699874137786 0.47083491771945385 9 336 147
0.5648266751053176 0.4998714264722479 0.4510237434261255 9 336 596
0.5666593658487141 0.5567825639333536 0.45244427822969246 9 337 575
0.558513036716219 0.4719040646803506 0.4468514107276802 9 338 607
0.6789482451193263 1.768457984278158 0.48018159397838867 9 339 81
0.6697197598426385 1.666658595966566 0.4770740522284155 9 339 125
0.6673218276157464 1.6455615839133393 0.4768950431093453 9 339 134
0.6572947733938423 1.592993814913677 0.4803307118203277 9 339 156
0.8363483048291425 0.6829623995559101 0.20199726039584398 9 339 472
0.6299297982390759 0.7089634700831892 0.4027881516516656 9 339 504
0.5969505825952495 0.7055026302975779 0.4339744932064231 9 339 513
0.5649177139943391 0.5843086475221073 0.4504361697221839 9 339 565
0.679134271183778 1.7490733421136477 0.47446901544906694 9 340 90
0.555119579503441 0.4784818275357928 0.44393380525857773 9 340 605
0.6756932207456374 1.7796267255689742 0.47813479988648666 9 341 76
0.6870741061385885 1.4898433092209116 0.43287032195472697 9 341 202
0.5879920177148141 0.7044237625417682 0.4354893549718537 9 341 515
0.5578882259119692 0.45733528427628023 0.4352844089973824 9 341 611
0.6502566063543411 1.5236462620931588 0.46908493636561266 9 342 186
0.5633610538863194 0.6077804119245735 0.4443569498076094 9 342 556
0.571454312415922 0.6867027386058779 0.44245363960513817 9 343 525
0.5634636087717009 0.5786315055176355 0.4373199513073829 9 343 566
0.5620595689025963 0.5543731485888458 0.4357893548489644 9 343 575
0.666822889918244 1.747213524433778 0.4731141734263328 9 344 90
0.6628373187843868 1.7302613877748203 0.4749662281026976 9 344 97
0.6482811190181552 1.5978147779603873 0.4732824176147823 9 344 154
0.5618596108950928 0.6515147024298636 0.4441277236896093 9 344 540
0.5615424375368613 0.4965284577117808 0.4258737241129884 9 344 595
0.6560699853742777 1.708579426044444 0.4757137488267088 9 345 106
0.6575385540264991 1.6889149287982397 0.47191361230392115 9 345 115
0.6477631044660577 1.62314778827185 0.47355907114006235 9 345 143
0.6787272175937455 0.6841558379076798 0.3303755029130093 9 345 500
0.6618372204241381 1.4958107303885124 0.4411113085869083 9 346 199
0.7709118838434896 0.6855682849829476 0.236316311525411 9 346 481
0.724098587840428 0.685334074285499 0.2821956716790688 9 346 490
0.5620905597961556 0.6132869957200066 0.4323703418243807 9 346 553
0.6405153040130054 1.6654242672775748 0.4760205401729144 9 348 124
0.6418903682590982 1.6501548037234928 0.472804480500984 9 348 131
0.6365725319018081 1.594760701587215 0.4713118851534035 9 348 155
0.5638668866544496 0.5759674871997713 0.4190827117134326 9 348 565
0.5636927786428612 0.5159462115889667 0.41194891899429575 9 348 586
0.554981554324302 0.45733895159818216 0.41341524143194475 9 348 609
0.6454939710988561 1.7471078605407304 0.4778184252476544 9 349 88
0.6282924525711537 1.6068923741701662 0.4777213333792669 9 349 149
0.650196638486471 1.7779194105109335 0.4736871365370794 9 350 75
0.5591078120632248 0.6564481696421123 0.42660936246206416 9 350 537
0.6381557758495389 1.686343050231659 0.47116456373389504 9 351 115
0.5639320753863539 0.5813454820171661 0.4090488758517248 9 351 562
0.6346526651863547 1.7254227102809052 0.4762413251881037 9 352 97
0.6259494981383407 1.6278494770653007 0.4728800516063367 9 352 140
0.5845350978984667 0.7005129511447452 0.39961507374688265 9 352 514
0.5635059395960147 0.6175632379942321 0.41039414404995345 9 352 549
0.5642467006993248 0.5542620404107012 0.4018235892932114 9 352 571
0.6401979151492208 1.7716518056227561 0.4731764112897425 9 353 77
0.697417334169846 0.68074094927678 0.2802697833193428 9 353 495
0.5699693282413812 0.6903113959823337 0.40938915345288307 9 353 521
0.5620951511357799 0.4765972816525449 0.39075393209882714 9 353 598
0.6352828568845816 1.7377773097780653 0.47065926336496855 9 354 92
0.6283910995545265 1.7157320449585236 0.4748516086061636 9 354 101
0.5601277073531581 0.3760491517557851 0.3765732424732915 9 354 632
0.6376828292446748 1.7871466984483875 0.471160834411567 9 355 70
0.615173535056551 1.6065640212236878 0.47130148949044604 9 355 149
0.6150660762650035 1.586410519061147 0.46888734751156613 9 355 158
0.6147188631660352 1.5160690928895768 0.4604331684201697 9 355 189
0.6225507484913162 1.5056120984222592 0.4512102404732359 9 355 194
0.7143480449279478 0.6902267069410566 0.25638449785920736 9 355 488
0.5616268585513916 0.5905437414012243 0.39822839943836774 9 355 558
0.5606287231879455 0.564562861227778 0.3923877095974757 9 356 567
0.6236040641723875 1.7635184212515154 0.476000686894931 9 357 79
0.6151227270753672 1.662859842053573 0.47192731201366966 9 357 124
0.6126658573101613 1.6511744420783434 0.4729520480958467 9 357 129
0.6095973017866528 1.6305298547292078 0.47346856467844756 9 357 138
0.6951501541216649 0.6850175620217352 0.2671427926912264 9 357 493
0.6283990449097616 0.6864455750978431 0.33522278587905796 9 357 507
0.5641828801481454 0.4578709785062012 0.37170347445217544 9 357 602
0.558091493270148 0.44595511220287576 0.37639619391273893 9 357 608
0.5590610824024934 0.43310156219992646 0.3737881138771426 9 357 612
0.6154522413305199 1.6925156415655502 0.46885352347748 9 359 111
0.5608488917000886 0.6439931277431141 0.391413517168294 9 359 538
0.6080873243129346 1.671138216787896 0.47043679508016256 9 360 120
0.6021059478079515 0.6901610025935818 0.35132469463819826 9 360 511
0.5641404911101309 0.5746414852815462 0.37557905357651467 9 360 561
0.6162268251968599 1.7395655551947347 0.46757029950664264 9 361 90
0.6317402652219071 1.4922495652327343 0.4198753743333754 9 361 201
0.6441305269171202 0.6843459002922383 0.3035366677007083 9 361 503
0.5664740312335481 0.5424826705207376 0.3653973935706054 9 361 571
0.5654184669032816 0.42457545321670664 0.3513706352603123 9 361 611
0.599526920115035 1.6456759919417694 0.4695072208237714 9 362 131
0.6077596668810704 1.7291104883343809 0.4684952796536843 9 363 94
0.6061741506383521 1.689617301203159 0.465037557806776 9 363 112
0.5652570286686605 0.4582742757774423 0.3483930932263193 9 363 599
0.6118823168922263 1.7848393322273561 0.4681878151096792 9 364 69
0.5930017755813064 1.6098383687656543 0.46514237400641334 9 364 147
0.5906842354816113 1.5894485536177263 0.4649100937219689 9 364 156
0.5662095986325781 0.6379700796200104 0.3669640241996983 9 364 537
0.5690589784009296 0.5515908866381402 0.3527925963598868 9 364 566
0.5673549957006805 0.44897134010330764 0.34125476132497035 9 364 601
0.5991459209834815 1.7079270433965332 0.4682351397243084 9 365 103
0.605027302947731 1.7706244022302366 0.46702522285599335 9 366 75
0.5975390915699086 1.738556129276878 0.4674481379895168 9 367 89
0.5853762983353547 1.5700484869227318 0.4548326581910753 9 368 165
0.5950380588088828 1.691570066766929 0.45738895118871836 9 369 111
0.5909153466065222 1.6685979703194944 0.45871323890690907 9 369 121
0.564285941964161 0.6461402869618655 0.3516325074739066 9 369 533
0.5649273783966617 0.5789896579197245 0.3420700450827898 9 369 556
0.5782949364635304 1.5068529718500112 0.44736066577578004 9 370 193
0.5899008889276898 1.4992956963647384 0.43403306987207646 9 370 197
0.569529016560476 0.5534191093949802 0.33004090318709767 9 370 563
0.5830895830041354 1.647804903976756 0.45772509995831 9 371 130
0.5761459996265608 1.558330292039002 0.4531926071953465 9 371 170
0.600897489460563 0.6843614784853862 0.3102943939413114 9 371 510
0.5661661884504781 0.6312385605525233 0.3402127589787116 9 371 537
0.5789432859833731 1.709347652903675 0.46712111671818257 9 372 101
0.5795052197562159 1.627728086704363 0.4555952907016998 9 372 139
0.5689313691916671 0.6076991910226663 0.33036140047231166 9 372 544
0.5905767149720976 1.7820704093027393 0.46118181929174096 9 373 69
0.5849969558983358 1.7587444707494844 0.46403102330751533 9 373 79
0.578105851904752 1.6081507022139752 0.45118444856396844 9 373 148
0.5787011773220727 1.5884669614689715 0.4479009528618989 9 373 157
0.5815447358900108 1.6921449274014615 0.45552026835541026 9 374 110
0.5822801139843282 1.705834596317853 0.4533078953869276 9 375 104
0.5785737303641872 1.628929261667816 0.44689354376602886 9 375 139
0.5796853642832425 1.7395807125542504 0.45742894729430805 9 376 88
0.5774263851589536 1.7196647243539722 0.4571677349237586 9 376 97
0.5885293887057856 0.6856714147097318 0.3045635754396103 9 376 511
0.5751301596943956 1.6092593340362664 0.4413320513182635 9 377 148
0.5676916688035327 0.6358220890834382 0.31655294008904766 9 377 533
0.5802298674992956 1.685336003393747 0.44287501574599486 9 378 114
0.574286806632219 1.5089207354218463 0.4251817977671015 9 378 193
0.5784262648314127 1.6021262174503244 0.4300935261346137 9 379 152
0.5823175487562421 1.7685626777796024 0.4454498260139772 9 380 76
0.5737953875584513 1.744065828183143 0.45141879581078426 9 380 86
0.5781054320133605 1.7308415652844333 0.444863203789843 9 380 93
0.5790039376802287 1.6665182072647529 0.434995204441905 9 380 123
0.5762419370494655 1.6526275004109143 0.43610793471730624 9 380 129
0.5723407385119279 1.5700859709232804 0.42899113845055137 9 380 166
0.5737068474741505 1.6293393564590752 0.42564381321680167 9 383 140
0.5743740439568277 1.7126658485708848 0.4332248438722788 9 384 102
0.5766675044136242 1.5928217849609734 0.4138686364509605 9 384 157
0.5766834888188993 1.5089662626156306 0.40209137772906844 9 384 194
0.5777162538445834 1.7521682251976283 0.4250595372887922 9 387 85
0.5740352885991002 1.694891043316499 0.42106678192702196 9 387 111
0.5750837927360606 1.743239708986228 0.4234045210136146 9 388 89
0.5776642091573401 1.7832764602395983 0.42285832731191575 9 389 71
0.5782984324145479 1.7643866650904565 0.4194411250210428 9 389 80
0.5770683048853547 1.6773779121292272 0.40839268555373764 9 389 120
0.5789623854623593 1.6669641684273335 0.40476341696900064 9 389 125
0.5735830925431791 1.61224773006101 0.4030204855514765 9 389 149
0.5776748964006981 1.5749379356636655 0.3930625120970277 9 389 166
0.8852935580897028 1.4492722320065807 0.027451814035946542 9 389 228
0.8949099966992138 1.4753129047518692 0.015614319316222813 9 390 220
0.5739557355833214 1.7296705977346587 0.41264315927217354 9 391 96
0.5779407020308653 1.66385896885741 0.39519228000491124 9 392 127
0.5741249573611966 1.642798505856482 0.39650137770010585 9 392 136
0.5817179549901826 1.624711823248494 0.38522041574486954 9 392 145
0.8774557180697642 1.483911196756162 0.027351599501919788 9 392 217
0.8776375063605668 1.4528546553734432 0.02265301175596046 9 392 227
0.576103567598622 1.729545136093926 0.4033840028357303 9 393 97
0.5744000915582332 1.7180845124736122 0.4036707415361329 9 393 102
0.576646060302024 1.7101712596411636 0.3999504513781198 9 393 106
0.5893205618937633 1.6066484406290331 0.3704106404703651 9 393 154
0.5765767531901582 1.691024823325585 0.3938135382402215 9 394 115
0.5738952459992122 1.5580322840098102 0.3775139873276874 9 394 174
0.5775524353191934 1.793774839938731 0.4042723872154903 9 395 68
0.6296379313019473 1.5157329487070144 0.2998202921818538 9 396 196
0.5786941165316939 1.7504281377494686 0.389742807999339 9 397 89
0.5799448996938104 1.5162022376865305 0.35376749915458383 9 397 193
0.5822238301429157 1.7785254514791093 0.38634073365332444 9 398 77
0.5833371074572153 1.6625639688495306 0.36435865639407883 9 399 130
0.5936300467315635 1.649645951330481 0.350422360152419 9 399 137
0.850590401990232 1.484021971052807 0.02580568404160477 9 399 217
0.5805044774092891 1.7574658228323576 0.37828647926444026 9 400 87
0.5897617454591705 1.6100712387387102 0.3454678245195437 9 400 154
0.5849265609536138 1.6414340992217398 0.35223998313108495 9 401 140
0.6352624385811918 1.5158291656120644 0.2742884616241794 9 401 197
0.6455479288931496 1.5122034478494184 0.26165850755640596 9 401 199
0.8475588103033205 1.5240426834530139 0.026030419548672246 9 401 204
0.8436323492221562 1.4657658610052255 0.021923218082950724 9 401 223
0.8401698966832636 1.4379194960638837 0.021824842040305104 9 401 232
0.5849267578176015 1.7824305376286516 0.3698430676553044 9 402 77
0.580854245395686 1.7413974188320132 0.3684803832354029 9 402 95
0.5891535552753735 1.724515552734435 0.35615932237390013 9 402 104
0.5839157515134981 1.62110394117441 0.3467996900331225 9 402 149
0.5846653904744338 1.703448219550392 0.3547340152493106 9 403 113
0.5875277411078965 1.6863998026611178 0.34877745519771297 9 403 121
0.5875943707241515 1.8002550480255923 0.36234918609784983 9 404 70
0.5839017825718538 1.521645306055785 0.3245585422405519 9 404 192
0.6223022824940825 1.512634140188415 0.2776247411621957 9 404 198
0.8349055695611711 1.438508920148097 0.014108642898410517 9 404 232
0.5881533501025857 1.785894454598199 0.3559729983215325 9 405 77
0.8150511969061456 1.41648324198054 0.029708731872313265 9 405 239
0.5995559190153432 1.5102175248804774 0.29675833405045404 9 406 198
0.5838730154457055 1.7391408842205345 0.3468349215193456 9 407 98
0.5831984195202945 1.666928545758509 0.33658797264175266 9 407 130
0.5810575430311509 1.6435021192838242 0.3355669534322443 9 407 140
0.5806557315900953 1.6227526857972194 0.3328718213578741 9 407 149
0.589542320595843 1.7864041906652983 0.34370144110546597 9 408 78
0.5829124095224568 1.7282851912444714 0.34274062257425064 9 408 103
0.5863904365689745 1.6615854064444928 0.3283093082411659 9 408 133
0.8114864883437087 1.495642234035324 0.03219569304186787 9 408 213
0.8053819384220513 1.4320474555898342 0.02976179766831466 9 408 234
0.5868301434044731 1.7682822170955814 0.3405910375985204 9 409 86
0.5828983604061189 1.6473659144229233 0.32668136495582534 9 409 139
0.5817423074500003 1.6170968341232577 0.32340656320420624 9 409 152
0.5862101465793154 1.6968881884111666 0.3266900809510369 9 410 118
0.5844351603071963 1.6849464591976826 0.32698885665720057 9 410 123
0.6423434783390303 1.517578624992359 0.23100317383050206 9 410 198
0.8143744622754641 1.5296003550934758 0.024701311821691663 9 410 202
0.7985826704339052 1.4682733556299747 0.03431424335318822 9 410 222
0.5854986855739305 1.6026801424969008 0.30926518754045507 9 411 159
0.8022533029407677 1.4508513102109082 0.022535706355069074 9 411 228
0.5896001397787326 1.8010987665938198 0.32789411163058024 9 413 73
0.5868781542964742 1.657579017002325 0.3087456395627872 9 413 136
0.579514663183724 1.639340588316481 0.3148867460791278 9 413 143
0.6357009375317788 1.5075793874486958 0.22560208994478947 9 413 202
0.5822565666443811 1.7251405481100188 0.32132527749353446 9 414 106
0.5829589720519424 1.515545359341381 0.28751935761573666 9 414 196
0.5851630561351929 1.7628331653492804 0.32003990646395275 9 415 90
0.576608855505986 1.526947323608708 0.2933430758061486 9 415 191
0.7833600752386194 1.5251101977221717 0.03420122758341115 9 416 203
0.7647097986835769 1.4174417357627818 0.04016053553264287 9 416 239
0.5853323558696154 1.6801516335891329 0.2993600003793424 9 417 127
0.615836802282846 1.516438797039408 0.23557783951598132 9 417 198
0.7725670409605903 1.4507314697152704 0.031134047199726123 9 417 228
0.5798852223761827 1.63511149523399 0.29520769184832907 9 418 146
0.586045549938099 1.7524206605401107 0.3025745888403635 9 419 96
0.5848247902830055 1.7087535494378367 0.2971018658127409 9 419 115
0.5793368789541158 1.5433115324014204 0.2774422125464573 9 419 185
0.6307206727632197 1.5167434803544613 0.20917194340399448 9 419 199
0.7707014892457229 1.5101093651217545 0.03371783084268687 9 419 208
0.5773118411927173 1.6144479635258626 0.28759849987220787 9 420 155
0.6110004001229798 1.514716338657156 0.22549268033126824 9 421 199
0.6534070895886717 1.5128201752697243 0.17201252455760074 9 421 202
0.7618090039508274 1.451223510704221 0.02614708525164433 9 421 228
0.5793705734774607 1.6603757911403891 0.28489417066640965 9 422 136
0.5760443488164708 1.6291741859595301 0.28402499186211805 9 422 149
0.5763184713461559 1.5295471487695802 0.2675443583929278 9 422 191
0.5851629480973869 1.761608050982066 0.29026678128955163 9 423 93
0.7523833119174661 1.5218453522724293 0.031082468979475752 9 425 204
0.7519842003641108 1.4840254649090658 0.025395145828227772 9 425 217
0.7480215115992195 1.4573653397402346 0.02606216796391081 9 425 226
0.5890854185909009 1.7721088914616336 0.2757168987443639 9 426 90
0.5806926810165034 1.6630223164990825 0.2684788249550376 9 426 136
0.5767422123820283 1.6408292696460938 0.2698646388939223 9 426 145
0.5743254377924076 1.607759631392633 0.2636763018428212 9 427 159
0.5795903035002355 1.7401186090238747 0.2750018842381017 9 428 103
0.5811571462824593 1.7200569983063188 0.26966960655071937 9 428 112
0.738387984324238 1.475053238322382 0.02742771563091373 9 428 220
0.5774177506591077 1.6213738507826112 0.254262155354571 9 429 154
0.5755312206836521 1.5450767126019258 0.23617297625822742 9 431 186
0.5755017212812708 1.5231186871120543 0.2325337029132153 9 431 195
0.5797693419282693 1.7657576420297303 0.263828410223959 9 432 93
0.5774756041838127 1.6981828609703764 0.25544927541554974 9 432 122
0.5798445268775674 1.6454928531524333 0.23961218173029786 9 433 145
0.5802675883348745 1.7878848470196818 0.25925900153769765 9 434 84
0.7310064185459357 1.528428148084006 0.01820239024322645 9 434 202
0.5811255894226885 1.7684423509952127 0.25099014410887177 9 435 93
0.5728313960963534 1.6564117900008717 0.24282857759027565 9 435 140
0.5729949803935296 1.6238531568742984 0.23315694017313282 9 436 154
0.5751707332855378 1.5175689567579382 0.21216042163770865 9 436 198
0.7029621400268802 1.448812809014164 0.03223879226088355 9 436 229
0.5778232505310144 1.74785871107983 0.24408153589799952 9 437 102
0.5833621960454557 1.7290675403090194 0.23355017060632122 9 437 111
0.5763744182964345 1.707927426622961 0.23915673620963185 9 437 119
0.7103837119665366 1.49270579081153 0.025357669081419676 9 437 214
0.7039025348747525 1.4232296478966147 0.022018273966725177 9 437 238
0.573467092887577 1.6677437330191232 0.23219325300267912 9 438 136
0.5827726758033311 1.7742998457365116 0.23427531458335227 9 439 92
0.5761037410296697 1.6477578256496013 0.2213081927853504 9 439 145
0.5759566106285625 1.6381701796483361 0.21984976052634564 9 439 149
0.6796923382527253 1.304396124795583 0.02441291775442367 9 439 279
0.5761744918241312 1.657867541713307 0.21899470205383054 9 440 141
0.5739563212010896 1.5485190070577686 0.20301863649928187 9 440 186
0.5739353077026431 1.626724018951979 0.2126015411562312 9 441 154
0.6791060138650333 1.365793330089022 0.02658664988072923 9 441 258
0.5756281357934955 1.7504764148947738 0.22791750105939035 9 442 102
0.576367341125735 1.7094265229902543 0.2157971040600497 9 443 120
0.6944832304168247 1.5129628254737435 0.022397191685026296 9 443 207
0.6750393482849202 1.403508904790224 0.029409703818347177 9 443 245
0.5710566074111636 1.5937234389474948 0.19865763332298414 9 444 168
0.5738587206156451 1.5456576973765892 0.18233912347560155 9 445 188
0.675201092273398 1.4523708149694936 0.028580131374406292 9 445 228
0.6594770119595488 1.346582554976421 0.03122689730907169 9 445 265
0.5817358157097434 1.799858225366271 0.21252863652973364 9 446 83
0.5768111633761623 1.7327091911718568 0.20733604306767917 9 446 111
0.5733447745762019 1.7008839372731641 0.2064141629408378 9 446 124
0.5756587060367585 1.6611739754325507 0.19623967971183642 9 446 141
0.5667996390766666 1.5718073564319983 0.1924620751126218 9 446 177
0.6773979312676044 1.486726109939632 0.027070887474324845 9 446 216
0.6706076704782284 1.4325380470502809 0.026708410510724256 9 446 235
0.5814463622982329 1.787360354604789 0.2027180988566799 9 448 89
0.5758783310006648 1.7710938721349936 0.20743468668552856 9 448 95
0.5741554983679563 1.6280997403571351 0.1842927062069033 9 448 155
0.6684309359104232 1.461229075168524 0.02556433305088124 9 448 225
0.5670146765475836 1.6025344710965965 0.18543053292736622 9 449 165
0.6551449428281735 1.3701852112563222 0.022891438828244626 9 449 257
0.644807189718158 1.3217957917560144 0.02841884059250277 9 449 274
0.6397543715628706 1.2962657193305809 0.03078425852845945 9 449 283
0.5711048729414129 1.7496758433780504 0.2021455516011974 9 450 104
0.5735537090342074 1.7365726718767136 0.1964200314177238 9 450 110
0.5732648898718834 1.6627956080673507 0.18356475780224746 9 450 141
0.5713008506391668 1.5819742287569267 0.1717506414156158 9 450 174
0.567365624895849 1.5216947460403494 0.16634063830068602 9 450 198
0.666424933217153 1.5120632024819205 0.028218547073830536 9 450 207
0.571071910978171 1.6240376391871825 0.17552017090347816 9 451 157
0.575827967390595 1.7879894221373298 0.19448292407371404 9 452 89
0.571664182603564 1.7136420030206425 0.18679926215128173 9 452 120
0.6565868577753533 1.52257537956663 0.034541378586061766 9 452 203
0.6495218727593277 1.4076488232798379 0.02353501877344444 9 452 244
0.6450979069976319 1.3820972200794313 0.025041858167552444 9 452 253
0.6339360696721292 1.3112151556387777 0.027682944991969993 9 452 278
0.6263508765695782 1.2601835936005472 0.02895972750077025 9 452 296
0.5724351167009791 1.7663591671289973 0.19123118934248517 9 453 98
0.5746271807842779 1.7390514726964583 0.1832240435602226 9 453 110
0.5717702407989428 1.7072138590321457 0.18141347205483505 9 453 123
0.5745438448421283 1.6333522206471702 0.16414265817326767 9 453 154
0.571943340097893 1.5611844143741764 0.15465075685573648 9 453 183
0.6382110104706262 1.3425427098540652 0.02281308941671223 9 453 267
0.641051894474649 1.4608229245002107 0.035782529663526574 9 454 225
0.6503191064479723 1.439192944723627 0.01891450010455964 9 454 233
0.6295881632973293 1.3627029336523002 0.033885139553547106 9 454 260
0.5688522945978568 1.6860351619034413 0.17343152773115156 9 455 132
0.5737700357188377 1.62689155740485 0.15572986317567672 9 455 157
