2.546664290917928 1.5232077185737503 0.8750880381052238 9 9 62
2.5527138583864346 1.4666755844534034 0.8744216418027932 9 9 76
1.3505695957598671 0.22483302366533509 0.8801467968737327 9 9 490
1.2251336669060884 0.22612615625418897 0.8820732604228335 9 9 516
0.8172140329738091 0.2227738723048689 0.8882613985861267 9 9 626
0.7952278374305404 0.2153980814554184 0.8885218581608167 9 9 635
2.5489367537039502 1.6018390236431848 0.8719534377466893 9 10 42
1.1592387862661282 0.22100832832244555 0.8800263391361961 9 10 532
2.5206313243757945 1.2424150105944851 0.8644161965650874 9 11 131
1.3367812820156653 0.21814364800490105 0.8738109532247107 9 11 494
1.097597645078728 0.22399985659906152 0.8781605294988543 9 11 546
1.0695768526604579 0.2283768591407882 0.8787126102704758 9 11 552
2.5457251161751087 1.6568238072771502 0.8648745533091674 9 12 28
2.569231424475741 1.5943670078689958 0.8636603170975689 9 12 44
2.5555616005653183 1.556073322965333 0.8634558684161414 9 12 54
2.527181897766295 1.250949531821718 0.8561535587009615 9 13 129
0.9223650041909206 0.22259673716579575 0.8758939322698963 9 13 593
2.5132031463785283 1.2839212831346836 0.8527774743787483 9 14 122
2.5082475061154037 1.2719515913760386 0.8527234842262845 9 14 125
0.8403796133356631 0.22547398680910224 0.8750287428681451 9 14 617
2.510510917117786 1.3481210406650348 0.8496618840722663 9 15 107
1.0147266273188476 0.22183667075910307 0.8655076495399437 9 16 567
2.5208829011990455 1.3686516888005023 0.8416071726647483 9 17 102
2.527469455247634 1.3088190595707996 0.8405011947194733 9 17 116
2.488584697279346 1.529718741224221 0.8410547554219061 9 18 63
2.492049380209848 1.5177173002534803 0.8407645155703972 9 18 66
2.562254497359792 1.4714292285468833 0.8380973297377422 9 18 76
2.5496909165515484 1.4563980043250029 0.8381940707805594 9 18 80
2.5229127544388787 1.4348357807776746 0.8385712573467032 9 18 86
2.5067045227396103 1.2956690777496946 0.8367409762253711 9 18 120
0.8208464104895872 0.22747578802210522 0.8652093487349488 9 18 622
2.5095619401733087 1.6138022747297813 0.8379741804786184 9 19 41
2.5346814098135217 1.5385746345047986 0.8359767467835025 9 19 60
2.5047486451502485 1.5015090139369625 0.8362012894572732 9 19 70
2.5251137268012087 1.360897444090731 0.8332273306240948 9 19 104
2.5036661942861564 1.3262700644439684 0.8332509464554614 9 19 113
2.5130469485386064 1.3164089565298154 0.8328151925232191 9 19 115
0.8839191519944876 0.22830033008288297 0.860844868176848 9 19 602
0.7963057653820178 0.22663193022120298 0.8633194390987761 9 19 630
2.5235243940254035 1.6631697569345314 0.8345437566454069 9 20 28
0.8107080387560559 0.23120432186464623 0.8604220609614601 9 20 624
2.51786753146634 1.630019443373575 0.8302344630467449 9 21 37
2.553659182698783 1.5896918434939697 0.8283741270653936 9 21 47
2.5128571785198437 1.4941059698442143 0.8278910016433497 9 21 72
0.9714367932988508 0.23018781762374463 0.8528134236524366 9 21 576
2.522917305824772 1.6036793229226391 0.8256705808968892 9 22 44
2.521415178838436 1.549387012945556 0.8246832898780667 9 22 58
2.5203078785575377 1.4538262632445624 0.8228954567582326 9 22 82
2.511200299595071 1.3894359924885862 0.8219633331651194 9 22 98
0.9021376024901946 0.22427030242152668 0.8521723731546805 9 22 597
0.7796429702044863 0.22227416786413112 0.8561270355797266 9 22 636
2.520116278958463 1.627491800056829 0.8223101343235468 9 23 38
2.5184242605640392 1.5028489698694911 0.8199021737326376 9 23 70
2.526794158141815 1.421082121539106 0.8180007708769792 9 23 90
0.8696565030020136 0.22667401117784802 0.8506210627924473 9 23 606
0.8579495686012084 0.22494565150499035 0.8509842239285114 9 23 610
0.8258728987709958 0.22100438107835485 0.8519949878623598 9 23 621
2.5021057356038456 1.5167837713455454 0.8167679250351455 9 24 67
2.5145064377819666 1.4475701446724976 0.8149132690154149 9 24 84
2.518432073497592 1.3688973107380673 0.8131640232595795 9 24 103
2.5465702016079863 1.5810979418709183 0.8125315060841326 9 25 50
0.7727875154713573 0.22522601161709987 0.848817555376963 9 25 637
2.537244453713882 1.6364998026157245 0.8101079797559334 9 26 36
2.533353941114886 1.5590643551974128 0.8085627172653957 9 26 56
2.546802756732513 1.550238896516126 0.8078588513515039 9 26 58
2.5134392912636265 1.4691481547613896 0.8073533124310996 9 26 79
2.5154055957570254 1.3704744120907786 0.8051211994181282 9 26 103
2.540226746992328 1.5434491060638968 0.8039483972277366 9 27 60
2.5433749154349607 1.5192995733695414 0.8032797127632847 9 27 66
2.538902838992542 1.5036320398627532 0.8031021800039815 9 27 70
2.520513344943618 1.428349542623189 0.8021272224468836 9 27 89
2.5044386396298157 1.3808407499012327 0.8016877924796569 9 27 101
2.5278155377670313 1.6649104192065658 0.8032615478706392 9 28 29
2.520957361712551 1.4817651307145177 0.7992810177963378 9 28 76
0.8445950731013285 0.23432509690637993 0.8384887597114448 9 28 611
0.7692809559999361 0.22766626597136286 0.841398857516654 9 28 637
2.526592217674657 1.6428458340437593 0.7988640503439434 9 29 35
2.5395820470104966 1.6076213727187838 0.7974739465494928 9 29 44
2.516107481137381 1.5108899572819359 0.7961437446993604 9 29 69
2.5311907785831953 1.4611301773262344 0.7943173903951956 9 29 81
2.5064101828105576 1.410686802062831 0.7941510117162897 9 29 94
1.0053437675696195 0.2326676450257934 0.8290524128565552 9 29 565
2.491394747167145 1.6524258590557386 0.7966890691898535 9 30 33
2.5540182868367793 1.5997674338129904 0.7926722651382092 9 30 46
2.5213410735961395 1.527021554840135 0.7922971643174742 9 30 65
2.5276885357043457 1.3627637563029977 0.787971714449599 9 30 105
2.5229280987152305 1.422292404095708 0.7855525527586517 9 31 91
2.5057024732922715 1.657097204146473 0.7883667372763001 9 32 32
2.5261670687308104 1.6411429086443166 0.7870069757690541 9 32 36
2.5242290867683668 1.5793667124515531 0.7854866751881956 9 32 52
2.528265519819954 1.630247378688481 0.7826610030527507 9 33 39
2.5025015998265943 1.5106483035232152 0.7806842812416659 9 33 70
2.505647306086999 1.4008048139514566 0.7775955910046551 9 33 97
2.535181209541866 1.6727638610021547 0.7795203758385936 9 34 28
2.5209921974222365 1.6197182934814196 0.7787569028571601 9 34 42
2.5348247881312154 1.5840041514798182 0.7771002971182778 9 34 51
2.541494787797774 1.5320643989124594 0.7753480593086728 9 34 64
2.5138778563403053 1.438107760219689 0.7700262384694333 9 35 88
2.533451358243406 1.6742457003195024 0.7717375548608686 9 36 28
2.511664229033367 1.6597152980352492 0.7724421204118103 9 36 32
2.5551921907088797 1.5683268544209836 0.7675580060077001 9 36 55
2.513459773974786 1.64131924279339 0.7678609640582829 9 37 37
2.531200264181205 1.5901815752114694 0.7654089563095736 9 37 50
2.5305358266880456 1.514870877202004 0.7632167935359138 9 37 69
2.504733279515501 1.4809597439633513 0.7635804270600868 9 37 78
2.5062192954524263 1.6308377033904682 0.763974493464846 9 38 40
2.4846008481861004 1.6050408671805951 0.764367940992505 9 38 47
2.507879767731023 1.6550701750833798 0.7567127339670258 9 40 34
2.5122196122144405 1.6127054367200357 0.7551221484755344 9 40 45
2.5270074445286657 1.5767760954969416 0.7531391457557434 9 40 54
2.542584139981315 1.5077482195665457 0.7500619733306605 9 40 71
2.509968142433412 1.5588686961858311 0.7495128330489365 9 41 59
2.5379697325776114 1.628405748965923 0.7461035757587622 9 42 41
2.4934483079178835 1.6538844827777406 0.7456601268195295 9 43 35
2.5405978409235797 1.6094860090430407 0.7412717803901272 9 43 46
2.500449961644489 1.4614832162719091 0.7346200100070807 9 44 84
2.492484751001375 1.446016484855254 0.7345844325462684 9 44 88
2.5017369913983782 1.6701927570587727 0.7377868290384568 9 45 31
2.5595270775562846 1.637424845280592 0.7329339652692205 9 45 39
2.5103017128601057 1.477402160232641 0.7304425333779531 9 45 80
2.51677521279009 1.4936697368201661 0.7264885816871922 9 46 76
2.5589215639939296 1.6113835466094053 0.7238742387965822 9 47 46
2.5102047230627385 1.5190846489865004 0.7237409593585563 9 47 70
2.524184349230201 1.6486723132154717 0.7235378521382027 9 48 37
2.5191820193711187 1.4563799561431092 0.7000190843926217 9 52 86
2.4867893016671943 1.4888000609568461 0.6996006886501275 9 53 79
2.4903890905627852 1.4971819136433755 0.6955575494081129 9 54 77
2.5038878990192406 1.5567999020138563 0.6929137002567181 9 55 62
1.9554228202791708 0.2966566167833038 0.6779401829924374 9 56 378
2.5300406667831723 1.635459795437216 0.6860428654839665 9 57 42
2.5379299636650643 1.6233759422925846 0.6848757331895433 9 57 45
2.5038068555798585 1.679454089524624 0.6860667943170607 9 58 31
2.5121126864302457 1.522138737186673 0.6783679941421169 9 58 71
2.5011124155175457 1.4825215884893002 0.6775045653164912 9 58 81
2.5223525397267714 1.6643194767465443 0.6798017325292429 9 59 35
2.5322376188523332 1.601409794300475 0.6761242935209117 9 59 51
2.4902966692097173 1.5564603607865906 0.677591003330393 9 59 63
2.4965373727697893 1.5320875701425287 0.6759648345733839 9 59 69
1.503491465669246 0.2834471552900584 0.7023357976213608 9 59 445
2.5357590754205797 1.625601257418563 0.67280762301103 9 60 45
2.476215221177055 1.4780711812104537 0.6710721346582523 9 60 83
2.068905372788468 0.2837440727630429 0.6506737059035516 9 60 367
1.8530657406041975 0.2794442093468179 0.6688135924024676 9 60 394
1.6560737435096036 0.28211331509307813 0.6856731187372606 9 60 421
2.5274928194625277 1.6656070504659573 0.6712688242523016 9 61 35
2.532376884609026 1.6067591518501336 0.6680939572510803 9 61 50
2.5238853023532 1.567493084262703 0.6669904679628396 9 61 60
2.507948516997245 1.5365472637703679 0.6669192846154205 9 61 68
2.494154720281904 1.4687633183292235 0.6649396485930804 9 61 85
2.5035037722568143 1.45958481634686 0.6637027494922815 9 61 87
2.040140201572717 0.27967150993036216 0.6485266618466666 9 61 371
2.0084472741587134 0.2887404492147785 0.6516883580689286 9 61 373
2.4890124022769538 1.4943669813625309 0.6624224405314855 9 62 79
2.510768426128517 1.6790738642770857 0.6652273823753901 9 63 32
2.5052096596269777 1.5340681807867713 0.6587281963751392 9 63 69
2.4939809234608283 1.6068936999981296 0.6591481383619421 9 64 51
2.5020783314593933 1.465759457556252 0.6515029378512796 9 64 86
2.5321929177319626 1.6915471307004744 0.6557382661343949 9 65 29
2.53093387802084 1.6800151665527374 0.6552809943015776 9 65 32
2.528841499706423 1.664593378168961 0.6547070949538958 9 65 36
2.5223739781796533 1.617957239799104 0.6529844926875646 9 65 48
2.5167525577736756 1.5706923890842495 0.6511527643025841 9 65 60
2.5019125237993256 1.5523803191974956 0.6474518923827938 9 66 65
1.4285120342305222 0.28993284521511065 0.6841074599566548 9 66 456
2.5247293199958225 1.6661716408913716 0.6469471537697485 9 67 36
2.50045336991207 1.5849996154008927 0.6450973279665554 9 67 57
2.530205562845974 1.5021017794376907 0.6380325007171345 9 67 77
2.507358341633605 1.6487960722210615 0.6394921626153258 9 69 41
2.514878905276338 1.6647749975286659 0.6354840203480733 9 70 37
2.517792798924318 1.613821767402865 0.6324755199472216 9 70 50
2.5242327172215155 1.630004955052535 0.6285420795957937 9 71 46
2.48569060049465 1.600423812350026 0.630818914709379 9 71 54
2.528643285406764 1.685216124199188 0.62695631928868 9 72 32
2.5429435869502997 1.6180012878374472 0.6218105554786418 9 72 49
2.5413879239116497 1.6661534690008173 0.6204430571794688 9 73 37
2.5016679703597893 1.5167050306434544 0.6162455345177553 9 73 75
2.533635737090179 1.6592983446243383 0.616697464389419 9 74 39
2.4823780240883293 1.602679332904263 0.6188856555020509 9 74 54
2.540170532951094 1.6440669263001648 0.6109611601438387 9 75 43
2.5073908067020767 1.5781588194354588 0.6106859485206587 9 75 60
2.4759667435771786 1.3794585295027058 0.6026883593288065 9 75 109
2.5102090007206774 1.7001111315583142 0.6132322931719841 9 76 29
2.5100779723075672 1.6395306785725032 0.6014113107876758 9 78 45
2.4977903150195084 1.403921975380839 0.5888003800483529 9 78 103
2.53722992744804 1.682417721756165 0.5967673392088296 9 79 34
2.4992419312138043 1.5058499278311095 0.5818912720437568 9 81 79
2.461722925399809 1.3250814223419367 0.5750832207610155 9 81 123
2.48176397035874 1.370066788749598 0.5711947320348543 9 82 112
2.4834440814753975 1.3097926446507708 0.5628402260987458 9 83 126
2.483490087817481 1.3759129486057498 0.5582745044187503 9 85 111
2.504583071027836 1.6462231017788904 0.5647632972715625 9 87 45
2.4970277380855985 1.4434453969276642 0.5523077142542844 9 87 95
2.5162639698509714 1.675478410513629 0.5526140132755941 9 90 38
2.5095758162300403 1.6653955639039904 0.5443353500671199 9 92 41
2.5045397132671843 1.4891262608382803 0.5239670783645656 9 94 85
1.3835578108484186 0.3021119590394923 0.5895579296671748 9 94 459
1.3714058550571657 0.3030346850165069 0.5912526840926842 9 94 461
1.3455360790669197 0.3018400954382785 0.5946352367532619 9 94 466
2.496310847313673 1.548231318403535 0.5249735776643162 9 95 71
1.4845289529610808 0.30412240500215293 0.5686323611290497 9 96 441
2.5154314954579426 1.6299716811995166 0.5154048705317897 9 98 51
2.5182345553754684 1.5487122891679224 0.5089682880036105 9 98 71
1.6472092804703313 0.29660377948449 0.5337171389984409 9 99 417
1.6203188897802745 0.30117385877815184 0.533870496455438 9 100 420
1.5906488260235052 0.3035058121189138 0.5382885470060904 9 100 424
2.491812013186014 1.4865894518257783 0.494899993556269 9 101 87
2.5252654149075893 1.6484778317453168 0.49816272798856354 9 102 47
2.4993881351029867 1.6972504087479028 0.5014672552511454 9 103 35
1.7505515314764106 0.3029956133337648 0.5028018075965668 9 103 401
1.3889493402444597 0.3032366614862345 0.5561253325222469 9 103 457
1.855678287204952 0.3041922982689691 0.4786633531434372 9 105 387
1.582874697256323 0.3077525093072653 0.5199781513306351 9 105 424
1.5305332591512921 0.30348048581403164 0.5275098075925506 9 105 433
2.5067075609992044 1.5632864146532108 0.4767870805040536 9 106 69
2.496189425081074 1.5517076612239666 0.47745239543472473 9 106 72
2.497864867326618 1.501889214329387 0.4731860646960341 9 106 84
1.565015320070085 0.30543063091291645 0.5106444068539632 9 108 427
1.9365363200878312 0.30418272276228064 0.448475185217465 9 109 377
2.4628549889986484 1.491072664673665 0.4600938838420593 9 110 88
2.475545606347132 1.5078726958163178 0.4506776581465315 9 112 84
1.5853642779055164 0.3035211653422969 0.49135323523192087 9 112 424
2.4879255284421875 1.5489151946672486 0.4477771852810717 9 113 74
0.7354169836334516 0.24567676729674148 0.6204476180525615 9 113 627
2.4581685515434053 1.5031076440633346 0.439866240944881 9 115 86
1.6674802714186652 0.3067928215216862 0.4577074743906624 9 117 411
0.726396567808971 0.24800384007690823 0.5887920365140746 9 125 627
1.2169928082474748 0.3457215701554808 0.46736793766217266 9 137 477
0.6939974924508205 0.253731790412854 0.5479899531439891 9 142 633
0.7142778434201753 0.2535862436646905 0.5266545735315085 9 148 625
0.7974525006741859 0.2922285938698179 0.4801675937303401 9 159 588
0.8040210029208004 0.36504636621660125 0.484620387779626 9 160 569
0.6903264732267913 0.24233224695036015 0.4962519624237081 9 160 633
0.7039462751085099 0.2504535951236764 0.48533122782722005 9 163 626
0.6867253036987848 0.24041379009729558 0.48820966703975255 9 163 634
0.7128947117871203 0.29206670902973464 0.479743943623651 9 166 613
0.7178606337565874 0.35290648823658577 0.48349950791370766 9 167 597
0.6698721598508974 0.36633522194437784 0.4887685267525602 9 170 609
0.623482359225701 0.34005314432005607 0.49152264324360506 9 172 631
0.737320843375902 0.5805458259032403 0.48644822899948936 9 175 532
0.5973001843074158 0.35751663719155324 0.48439223678466486 9 178 635
1.0786112224484927 1.0755660197334733 0.45356082296799094 9 179 308
0.7212159580805835 0.6361195168577047 0.4875502397235817 9 179 521
1.081255114229787 1.0899296900770383 0.4461902342070492 9 182 303
0.5991191212064093 0.4602080215980333 0.4876710728748403 9 182 608
0.6214117526088068 0.5287305957242157 0.48874887589054694 9 183 582
0.6069032369369125 0.5026557399622775 0.4889845049739261 9 183 594
0.6792763713839617 0.6474275211947869 0.48730211519532 9 184 530
0.6183043876626563 0.5793536183492678 0.4917072242320423 9 185 569
0.5835353926751857 0.4448068318266396 0.4818356378240546 9 185 617
1.085169118384518 1.0944717465240381 0.43414106889761417 9 186 301
0.5689492647065134 0.39770487658672593 0.47639783848772665 9 186 634
0.6272916774604916 0.6031105061977624 0.4875150243535174 9 187 559
1.0824182321803673 1.0771761516020784 0.4265248812691099 9 188 307
0.5854365183878412 0.5093098402823126 0.4829012968425149 9 188 599
0.5799274816428037 0.5445923596057161 0.48198961774253635 9 191 591
0.5725917598117087 0.49071537270382626 0.4760066176674065 9 191 608
0.5670681029079703 0.4716460433860581 0.4747292844111275 9 191 615
0.5890332101152548 0.5831213476268318 0.48261419500007047 9 192 577
0.5568277260166663 0.40601340724823554 0.46252025809958897 9 193 635
1.074853131760199 1.0935146714633128 0.4135481055599348 9 194 303
0.5634972381583698 0.4627510793082994 0.46658518543450156 9 194 618
0.5922890484044138 0.6164670123387586 0.4791201984281919 9 195 566
1.0844876705641435 1.1169914701157964 0.408454417781131 9 196 294
0.5783212795939199 0.612189706908659 0.4800502592693064 9 196 572
0.593812274134933 0.6588544980403801 0.4801756031068975 9 197 553
0.5819761499240524 0.6421022800212068 0.48109082011448695 9 197 562
0.5734846113722161 0.5674556561236737 0.47201714320818144 9 197 586
1.0933614087454626 1.122386436438725 0.40076300784458296 9 198 291
0.5600230471855869 0.5288664746310672 0.46488713261687453 9 199 601
0.5539271467195257 0.4091753965868412 0.4479139215888516 9 199 634
1.0737477403557003 1.084947618194812 0.3948582735759367 9 200 306
0.5601396932478739 0.5166676128958987 0.46035117443634305 9 200 604
1.0865667635818077 1.116380986839653 0.39298943315293655 9 201 294
0.569338881461857 0.588403187770294 0.4663635601337997 9 201 581
0.5693897163165924 0.6547190776312477 0.4743984761322981 9 202 562
0.5572708958196566 0.49251787253070667 0.45219069123571914 9 202 611
0.5582726239254039 0.4716963458833199 0.4485579812782492 9 202 616
0.5510153722656987 0.4123510571946929 0.43326939159484973 9 205 633
0.5700277695077215 0.6619384457686768 0.46539930242258515 9 206 559
0.5540072160126651 0.39773860864372623 0.42455962111537116 9 207 635
0.5592049980667702 0.5790009830813121 0.4501292257816515 9 208 586
1.0734311490541262 1.0791525780863287 0.36715546400188714 9 209 308
0.5661291907269599 0.608921452689867 0.4503338766249617 9 209 575
0.5562998861331152 0.5137339323969341 0.4324215540506697 9 211 604
0.552594765794344 0.4921445673134799 0.42999032335225035 9 211 611
0.5499589587010898 0.4726313341606736 0.42756382773325563 9 211 617
0.5629625563241358 0.6068631490061231 0.4407931427530648 9 213 576
0.5545594673251092 0.39136049174732923 0.4069865472691183 9 213 635
0.5615232803065455 0.6574202807925147 0.447319044346316 9 214 562
0.554964586182702 0.5585014673329822 0.43260136427613866 9 214 592
1.0755531065612591 1.087906527215789 0.3468131456884701 9 216 305
0.558403647090023 0.5775543213368675 0.42696686990199295 9 217 585
0.5534985064440976 0.5046277737427212 0.41331732396454746 9 218 606
0.5569694508455046 0.470659169548191 0.40086138341386424 9 220 613
0.559552013920132 0.43481134550601497 0.3936877260370414 9 220 621
0.5547246722160917 0.384575074984558 0.3864809715321328 9 220 635
0.5594392682990561 0.6062319892945629 0.42128707295890694 9 221 576
0.5620074193615199 0.6520420454625795 0.42596618976818407 9 222 562
0.5565088017175821 0.45774850740146267 0.3933221398861785 9 222 616
0.5613333425009257 0.43039345098724224 0.38681979126665167 9 222 621
0.5561620277360668 0.3878849586963078 0.37824807392392 9 223 633
1.0718815236104962 1.090007615073328 0.32405305142264695 9 224 305
0.5589071431604112 0.5890515575774562 0.4053968061932277 9 226 580
0.5511845676527644 0.5170961440688093 0.3950360264225572 9 226 602
0.556430535657511 0.6595023807331242 0.41648025096463304 9 227 561
0.5661605424768575 0.6296088074693671 0.4076344899978721 9 227 566
0.5624967806912817 0.4397046503702424 0.3715481071875907 9 228 617
0.5591911194826463 0.3784399853889018 0.361490045462174 9 228 633
0.5566667085397567 0.4874152314054252 0.3796169303011241 9 229 607
0.5592634834676706 0.6041441942894243 0.39756638971796154 9 230 575
0.5608477656336595 0.5463692473819828 0.38631887790823893 9 230 590
0.5589317190990384 0.4537164725455163 0.3643424863196929 9 232 614
0.5579210146829553 0.38086401749444465 0.35109636589082127 9 232 632
0.5586358205706422 0.5727963087419075 0.3813765056690792 9 234 583
0.557205602404095 0.6671222859166188 0.3945362299432207 9 236 557
0.5605510539083224 0.6453449615587172 0.3891655003273893 9 236 562
0.5579071286326858 0.37184770872328854 0.33517843780398027 9 237 633
0.5653408910020031 0.49138076580156675 0.3525659967457153 9 238 601
0.5570573703159019 0.4309311532729465 0.34399587368803686 9 238 619
0.5631171298700306 0.5819350025998467 0.3681252466293492 9 239 578
0.5628580074557121 0.5673259694972441 0.36539785369015965 9 239 582
0.5578920038136059 0.39871350226298974 0.33180810265936633 9 240 626
0.562834422967474 0.5393263609506613 0.3545478667026941 9 241 589
0.5645230241519006 0.47016789633258504 0.34042050958301817 9 241 606
0.5701161917159344 0.672228758289305 0.3751361460059741 9 242 550
0.560312487761224 0.35788906504277307 0.31429467486554274 9 243 634
0.5664095807472466 0.6431184197862281 0.3628823062513309 9 245 559
0.5647849111528221 0.619901212955706 0.35888512051509036 9 245 566
0.5663104651173965 0.5847449584590148 0.35131108853405935 9 245 575
0.5619674276920359 0.44032424103108947 0.3185687138809611 9 247 613
0.5677862494227326 0.668042852745705 0.3594004451280609 9 248 551
0.5646956818852134 0.5959815784674678 0.34606252180383346 9 248 572
0.5670758632151343 0.5847161556289371 0.340145918254783 9 249 574
0.5613851498386522 0.5538074174545329 0.3333507394873464 9 250 584
0.5594616364143103 0.48610865326591135 0.32032009199616185 9 250 602
0.5604898897311212 0.44812771175536437 0.3121858452779692 9 250 611
0.5545433688327872 0.3711677544715444 0.2930180787347384 9 252 631
0.5656029066203826 0.6282664599141423 0.33878813828452836 9 253 562
0.5595872577110522 0.6526513253054342 0.34087304993385803 9 255 557
0.5565571981300155 0.5452014941911312 0.31970029969679126 9 255 587
0.5644041264656289 0.6662497090500494 0.3337615521022498 9 258 551
0.5629501390986886 0.6137497746124929 0.32326370283697703 9 258 566
0.562398624261017 0.5808857305643116 0.31654675230594553 9 258 575
0.561789533748944 0.49624636222885155 0.2989185655520359 9 258 597
0.5557732785424068 0.41899092151008377 0.285043094866381 9 258 618
0.5602487162260391 0.5331818566475617 0.30454400678446514 9 259 588
0.5613977332153399 0.475845340933738 0.2919118332228797 9 259 602
0.5582860983153503 0.45590413964477783 0.28894924013851664 9 259 608
0.5608225824415901 0.5701996047060662 0.30939368266123257 9 260 578
0.5592932817030185 0.5454046901717646 0.30473567029658755 9 260 585
0.5528504475481087 0.3605863676972474 0.26502617996195954 9 261 632
0.5652724732577141 0.6663455639379912 0.3226778972100667 9 262 550
0.5616808992905372 0.578310949996335 0.3024553140267061 9 263 575
0.5518478423441946 0.42459826470346096 0.27333447480716433 9 263 617
0.5586751197426783 0.6300125666922693 0.3121451561556742 9 264 562
0.5599275514519798 0.5454030714786808 0.2932663517255043 9 264 584
0.5594048341278782 0.5265842570027988 0.28940132581236344 9 264 589
0.5639331028914631 0.6108566507131894 0.30027919764557465 9 266 565
0.5563282177303291 0.491876546697279 0.27169694719068793 9 268 598
0.5571041416799071 0.4539370282190407 0.2629894629232855 9 268 607
0.5566048585453343 0.33857351071609676 0.23772546739636136 9 268 634
0.5595813445837008 0.5615025267407519 0.28287874211729047 9 269 579
0.562148492067533 0.6790557844822356 0.3024381030349791 9 271 546
0.5608223520617175 0.6294067602382385 0.28913724349487646 9 272 560
0.5568968566766566 0.4998667995747381 0.2617215686837283 9 272 595
0.5523150241046109 0.45754097206577105 0.2541887319861732 9 272 607
0.5567346558387929 0.41302997734912683 0.2422770530568351 9 272 616
0.557957272569559 0.6125550784941787 0.27824326562656165 9 275 565
0.5520282116170763 0.33421225801620347 0.21746920550107696 9 275 635
1.1995918734458453 0.7108333374357918 0.011993542631778653 9 277 387
1.1406549722271515 0.6375300208242569 0.021177143508090857 9 277 414
0.553109537541311 0.46440512075379337 0.24077968504836655 9 277 604
0.5557163240270491 0.5793768581258161 0.2632032525625255 9 278 574
0.55581995130652 0.5443420337607505 0.25507777014661326 9 278 583
0.5485625820733194 0.350154482581718 0.2135127570942843 9 278 632
0.553561762699643 0.32854083766503717 0.20631201203784622 9 278 635
0.5563110916212186 0.5223101937028061 0.24399812129522014 9 280 588
1.22683551892176 0.8460633041349302 0.015595247188228356 9 281 350
1.1536434121474939 0.7039399243501918 0.015268326855898184 9 281 396
1.1137571004016988 0.6440673282429257 0.01919602782976082 9 281 417
0.5545204019065274 0.4546369509273265 0.22609822610635044 9 281 605
1.1706704211716363 0.7711801396316257 0.019490507525170342 9 282 377
1.026303967163172 0.6372254731573601 0.05318053904749953 9 282 435
0.5536061945341217 0.6233340205482278 0.25751165602129733 9 284 562
1.0417697033110707 0.6445509033882679 0.0367464885367037 9 285 430
0.9905365077971315 0.632692260661532 0.05733312543407221 9 285 443
1.1447775439456958 0.7754172352435347 0.016973323882766955 9 286 380
1.1384562918576453 0.7592512610692528 0.016016789502237616 9 286 385
1.1293306424132545 0.7201278403191702 0.010870296725175255 9 286 396
1.1060298805727142 0.6991838666582839 0.012750505296155623 9 287 405
1.0348689063832128 0.6368314404564752 0.030596737024606302 9 287 433
0.5540876131254914 0.6131794706553153 0.24641801163175203 9 287 564
0.5554847611783633 0.5770068990565091 0.23710935651229037 9 287 573
0.5576046685464597 0.518906497300831 0.2222150034005057 9 287 587
0.5515756397402767 0.41970673357445576 0.20122950341345702 9 287 613
1.0214228568917245 0.6349329724482713 0.0326178564360452 9 288 436
0.9993083056372403 0.6366757301103325 0.04326777515949498 9 288 440
1.2143251702469549 0.9696227600950346 0.020121188923415412 9 289 320
1.109714743941493 0.7742569502364773 0.021529606734567386 9 289 386
1.0851403425255877 0.7138704125310367 0.01458513950277629 9 290 405
0.554299266731798 0.4803701477293105 0.2055950218461826 9 290 597
0.5510501711350082 0.46436184868250985 0.20322794554902135 9 290 602
1.141186761284443 0.8371932184813222 0.014584807597353033 9 291 365
0.5537878040272062 0.6444565650005378 0.24281925900240098 9 291 555
0.5530083028584345 0.5421474888831832 0.21826647913755637 9 291 582
1.0896956303676402 0.763304711209014 0.01696533462791261 9 292 392
1.1723642365499733 0.9576320756814207 0.021884401310613533 9 293 329
0.8959104441454975 0.6511339174262833 0.07720809270865914 9 293 458
1.093649884332732 0.8316673161631972 0.020737357824175073 9 295 374
0.5565888912036985 0.608179495021141 0.2212055197277213 9 295 563
0.5503635789298114 0.4009111523840416 0.17285323182707013 9 295 616
1.1550055453565453 0.9593958351747092 0.019439782860091626 9 296 331
1.080887626545972 0.7807167200619125 0.010467838225710291 9 296 389
0.5510439081418053 0.5802727058987833 0.21404235748036404 9 296 572
0.5537732492320461 0.5411595052076925 0.20301341552564367 9 296 581
0.5534356038894387 0.513469762713785 0.19629119046858368 9 296 588
0.5475150275744429 0.4251024653777187 0.17410495493154343 9 297 611
0.869732189528889 0.6366208432545892 0.06868920054820737 9 298 467
1.1271332773720897 0.9521798373202681 0.019990574662939964 9 299 337
0.9548681789662048 0.6330905661554507 0.023099679817785823 9 299 449
0.9368084685066371 0.6365539109725045 0.03271534916558749 9 299 452
0.8351185107143573 0.6567966733502608 0.08704550206154649 9 299 470
0.5521351871843749 0.53307635861034 0.19292610922607756 9 299 583
0.5491371905651636 0.4925765583235233 0.18418600532679474 9 299 594
0.5520198088812374 0.5524059910990669 0.19490333396244108 9 300 578
1.0638403560327896 0.8386497586213834 0.014733390027282467 9 301 377
0.9731453475238954 0.6952410017806678 0.022624201447819847 9 301 430
0.9580999422542014 0.6544844638261356 0.01962906199195169 9 301 443
0.6076318397333483 0.6799199765728956 0.19715813707331176 9 301 526
1.1182469855714048 1.0008749359132594 0.02571273641660954 9 302 325
1.0715005611681792 0.8947261938002276 0.02158724894566555 9 302 361
0.9759050610044793 0.712944471764708 0.022139419280497452 9 302 425
0.5555563927775518 0.6677129155195178 0.21379466390110602 9 303 546
1.0266502010599983 0.8399643596330059 0.02240511411819779 9 304 383
0.9493891019720446 0.6976165551817712 0.024031049306519447 9 304 434
1.103559787360276 0.9977683796647755 0.021313695299761348 9 305 328
1.0906568711426246 0.9612072773768474 0.0182899230887984 9 305 340
0.9063736468210326 0.6282991562790325 0.023893399758679212 9 305 460
0.8366856279805748 0.6278950401948322 0.05490004823315109 9 306 476
0.9399545315548528 0.7084681457864108 0.0207268086287693 9 307 433
0.9248236998270114 0.7047335389364175 0.02375448824841586 9 308 437
0.8902833896692364 0.6376636616670552 0.023600210278109657 9 308 461
0.9525859295836128 0.7689582957990623 0.023006265468366927 9 309 415
0.9082877670982497 0.6944115280451122 0.02581262752268998 9 309 443
1.0550925581337585 0.9916809665931425 0.026120635207248832 9 310 337
1.0486199551463729 0.9485472267278681 0.018054970411907845 9 310 350
0.917284896390117 0.7183569608988685 0.023998192494348314 9 310 435
0.8982318324601692 0.6947325704515253 0.027429233551977794 9 310 445
0.8024071735459093 0.6232821359126914 0.057139185590170616 9 310 485
0.592305667028803 0.6852546885026731 0.1797665371643189 9 310 528
0.6075817564465545 0.20294546975754635 0.045218402651625245 9 310 635
0.7907140921680862 0.6184001492818365 0.05836853439854961 9 311 489
0.5524351737054599 0.6023886741792754 0.17521429170257696 9 311 563
0.5498713602081282 0.5706862595307471 0.16814842217254633 9 311 572
0.8876181034345574 0.7068229903410195 0.025439001078262913 9 313 444
0.6216951988563038 0.2361996025493891 0.036420820982607016 9 313 623
0.5831381209513935 0.6784009695867164 0.16793274554537385 9 315 532
1.0176863660206665 0.9805635674770213 0.021130071085909807 9 316 346
0.9133915848195377 0.7628335026795879 0.016569532202307835 9 316 424
0.8117464348606069 0.6307842289656034 0.03023271817811679 9 317 480
0.7494008564466752 0.6218234332976564 0.06024633895426279 9 317 498
0.5471514124149666 0.6243015198505202 0.16613538103128977 9 317 558
0.548871251346724 0.6105410445407866 0.1615222650702347 9 317 561
0.5488062093757051 0.5990145734437098 0.15844140188022993 9 317 564
0.7983146457817143 0.626925527188726 0.029275421865140316 9 319 484
0.607323034942362 0.6847973121452811 0.14517478301319475 9 319 522
0.54580088901656 0.5372329026867324 0.13420898861942865 9 320 580
0.8646235743473776 0.7664880989445182 0.025612733434052792 9 321 433
0.8636523674083096 0.7286141835502573 0.015732561825147928 9 321 443
0.9674056035574665 0.9780888679470071 0.025924364496305308 9 322 355
0.8373429892740927 0.7122867433493612 0.021693838962330236 9 322 453
0.8550530646235559 0.77382092520737 0.025813953044590887 9 323 433
0.9806735397315114 1.022179422583292 0.02416279543565336 9 324 340
0.6076791384290237 0.6815107533511569 0.12898050382946014 9 324 522
0.5721273889553895 0.68617476000456 0.14927919616366392 9 324 532
0.8728308693674673 0.8190876676860828 0.021998130370986635 9 325 417
0.947540350821652 0.9723539777637067 0.021182964999618692 9 326 360
0.7657162189734323 0.636271019499647 0.025120361067692665 9 326 489
0.873908418813822 0.8583019330588506 0.025537213167414308 9 327 406
0.7668575284625987 0.6466615803878106 0.024000435587318902 9 327 486
0.5877291835511667 0.6875230616430827 0.1293282481162037 9 328 526
0.5904665857599378 0.3462218746701047 0.03165342415629124 9 328 607
0.7677647237342766 0.6879396775324587 0.02495927127742903 9 330 475
0.8946766978468654 0.946261362275014 0.02552331046336198 9 331 377
0.5877147805035885 0.34268978632904945 0.022009556636884753 9 331 608
0.8755630802414254 0.9135064598418947 0.023301971103559693 9 332 390
0.5853381862544536 0.35934134866684175 0.024691974020638607 9 332 605
0.9022474100099143 0.9584198703764704 0.018055222341018307 9 333 372
0.8505801315009878 0.8993740008991195 0.02967921982411381 9 333 399
0.6630466080196271 0.6159096476369885 0.05201231570235765 9 333 521
0.5661546282351384 0.3133052810985282 0.018709418427742985 9 333 621
0.885855197518902 0.9272022620017444 0.014761921815864554 9 334 384
0.7759568043395491 0.7288026404321122 0.018594608380351763 9 334 462
0.5953304427296953 0.38368980977399736 0.019409164357785502 9 334 596
0.9178944500512567 1.0237536044816309 0.021438431985101758 9 335 350
0.897874509263652 1.0054870547134973 0.027311331156307905 9 335 359
0.8962440515515191 0.9929537748477197 0.024593885299811102 9 335 363
0.8303216660501243 0.8711458906357822 0.022742083112642253 9 336 411
0.8217977325075885 0.8489782524621045 0.02107313115769094 9 336 419
0.6350454636398488 0.6103848160854577 0.05303147956236853 9 337 530
0.5852564792449008 0.39586340718230106 0.018460766245826266 9 337 596
0.8260674212180286 0.88461056756388 0.022361321109535703 9 338 408
0.6832921807700911 0.6297999733405173 0.028285194955643522 9 338 511
0.6502851295109936 0.6236473697573759 0.04508861137625053 9 338 522
0.5976852629842093 0.46170079602925496 0.027356061018865785 9 338 577
0.8695803955588228 0.9958205724223408 0.02705759320789236 9 339 367
0.8398786047559332 0.9269406470002279 0.02363456102379513 9 339 393
0.8222367068049352 0.908174929445246 0.02478956295522816 9 340 402
0.855756135038356 0.9570346673241041 0.016818679349785093 9 341 381
0.5608256232209687 0.3880722280812712 0.016604530705024656 9 341 605
0.8470226686363227 0.9797719162897267 0.02522208690620542 9 342 376
0.5907939341967308 0.4766412178441677 0.02241812692542311 9 342 575
0.6516249336254825 0.6269561886335984 0.028971962159130227 9 343 520
0.8626430498610276 1.01305003253544 0.019557450085779138 9 344 363
0.7709532711344222 0.8554701779757585 0.025267637324001502 9 344 428
0.7939365928451316 0.8969114326491886 0.021123375034703074 9 345 411
0.5958537223898233 0.5220989293803577 0.019898754673021934 9 346 562
0.5533752504026985 0.439614843691706 0.019709020058308102 9 346 595
0.604963800677218 0.592281447097404 0.032517784578710796 9 347 542
0.5395336985489292 0.4151247632042978 0.017075655935282152 9 347 605
0.8291952794276136 1.0040783249867253 0.023112955561499948 9 348 372
0.8191186584031085 0.9808031804080117 0.02194257278504108 9 348 381
0.8034092521233727 0.9614246229738964 0.025248595558459375 9 348 390
0.7436440479547373 0.8379561746956963 0.022730831883729374 9 348 439
0.7889086284054809 0.9411879074255232 0.02433210240776784 9 349 399
0.7338056573377856 0.8138090824060467 0.017878903442015703 9 349 448
0.6367011718925568 0.6326641018739658 0.019702282125690918 9 349 522
0.5876148801506123 0.5392019353209996 0.020047343164812492 9 349 560
0.5215734686216735 0.41333026230636105 0.01720307355625894 9 350 611
0.5108860043342629 0.37591544339889094 0.012062442920334426 9 350 623
0.5024298316000315 0.3669007999940235 0.014288203428470592 9 350 628
0.7803115467352895 0.9403088759890657 0.02261899581810778 9 351 401
0.7581894761855752 0.8955026202476741 0.02195269623974694 9 351 419
0.6003071370658186 0.6074276789193658 0.02692218499873933 9 351 539
0.5421012261981886 0.45185770183238283 0.01361056400596028 9 351 595
0.7485006510470393 0.8716459518760532 0.017101436037619044 9 352 428
0.6912936686469668 0.7864396223157073 0.024812673423094456 9 352 466
0.8108434592109555 1.0250961875458642 0.020887019083490888 9 354 369
0.6075372284857521 0.6284737830941673 0.01940674117238006 9 354 531
0.5812119401736162 0.5810465189725424 0.02043360268718497 9 354 551
0.5447360179916396 0.5102180981257973 0.02027067909982927 9 354 580
0.7790843944637236 1.0067871552056098 0.027800124917407798 9 356 381
0.5151703844211595 0.45747328575538493 0.01511315309897765 9 356 602
0.7628015615716361 0.9885185986204306 0.028708463587499566 9 357 390
0.7079462592994183 0.8727963785737136 0.025578456937395355 9 357 437
0.679570836173336 0.7956052545087322 0.018527685009526174 9 357 466
0.702112674306197 0.8600912599100446 0.021915812968647863 9 358 442
0.6873533098558264 0.8167155245233909 0.017221176888127854 9 358 458
0.7750803139501425 1.018787804722741 0.024400620414528174 9 359 378
0.5177958520573968 0.502654213885849 0.01802987041505455 9 359 590
0.5011462766971695 0.4850287184228117 0.0225969298065245 9 359 600
0.7337891005308999 0.9464116938120981 0.023491678336687638 9 360 409
0.7226837894674891 0.9248475605817144 0.023442075283250707 9 360 418
0.5984739248858069 0.6708026838018519 0.01881493118752431 9 360 522
0.7066695427660401 0.9070503759442777 0.024405651164572495 9 361 427
0.7327735085763334 0.9765207087894441 0.027331202579144565 9 362 400
0.577566212058541 0.6590862330360236 0.01833139952860663 9 363 531
0.4781391542938531 0.46968444744355464 0.019060351821519994 9 363 611
0.6356362092586334 0.7887721258652158 0.020838667846469372 9 364 479
0.4987951222528475 0.5139027287029578 0.017286836395949745 9 364 593
0.4628143122014655 0.42755956040942733 0.011832973097050337 9 364 626
0.6778806486990447 0.8858752909466594 0.022710938306204742 9 365 440
0.5251405015858757 0.5746530814146489 0.017310993602152935 9 365 569
0.47461711267134854 0.4820351151584841 0.0188544772671404 9 365 609
0.7477697996348784 1.0329825110359352 0.023546347668418344 9 366 379
0.7356294565247954 1.0094085674702336 0.023492121534220756 9 366 389
0.7016364958165626 0.9434015254862682 0.023340288358467354 9 366 417
0.6940156497166481 0.9194648870712698 0.020349739556929536 9 366 426
0.6166730175273676 0.7637988797126801 0.018230360674522217 9 366 491
0.6008460689516504 0.7403773407191347 0.020524917803293796 9 366 502
0.5904846178927522 0.7184298191671057 0.019887307187893777 9 366 511
0.5330856795876824 0.6147110407064083 0.01897634909114343 9 367 556
0.5107893984454749 0.576895213525451 0.020655448195465942 9 367 573
0.7058733520183957 0.9725546374425136 0.023858938674774288 9 368 407
0.4817666141437633 0.5319130540711163 0.021074486239868517 9 368 594
0.4698451200137035 0.512413558731037 0.022210184559299018 9 368 603
0.7124185815933926 0.9966187549449923 0.02445750637275701 9 369 398
0.5703413400265129 0.7061488358306804 0.01905432994110179 9 369 520
0.5613923638824942 0.6978883004044734 0.02199470782711821 9 369 525
0.5624554846954114 0.6890128169386895 0.018423008618357883 9 369 527
0.501425910504501 0.5836815804680047 0.01931902319968004 9 370 574
0.6023463380885167 0.7873437564478141 0.01915971687862661 9 371 488
0.5897092724315837 0.7573442187480235 0.01730551214564202 9 371 500
0.5493731745345223 0.7067194674139601 0.023129210255494526 9 372 526
0.44005113735363155 0.4707942170016284 0.014830004983371059 9 372 623
0.699287018407059 1.0054868456130985 0.023220524852396007 9 373 398
0.5645855076058522 0.7366559175069538 0.020209186107391974 9 373 513
0.4960394170086704 0.6090063178822316 0.021710313694510486 9 373 569
0.4599682253342625 0.518972422201625 0.014922469839830144 9 373 604
0.6414325833001707 0.9280426325050994 0.03145360449737722 9 374 436
0.7039223274296513 1.033423565230362 0.02332445136068051 9 375 388
0.6378776127918134 0.914251083481394 0.026057484972919376 9 375 441
0.42219601580968646 0.4718559120572663 0.017221229404795757 9 375 629
0.5418161483148025 0.7208465098161607 0.020232282045060224 9 376 524
0.49986248053971316 0.6448204152306465 0.021866491606852945 9 376 558
0.6729184428772493 0.995732330743241 0.02453760489923895 9 377 407
0.523991818342368 0.7083603285898428 0.024481221847100443 9 377 533
0.4737107833163743 0.6016678977198513 0.02121271359159982 9 377 578
0.613388681140822 0.8714619857360826 0.018257297849952447 9 378 460
0.5784420968693309 0.812653274637996 0.021153074528732274 9 378 487
0.45534848820834406 0.5591517319210926 0.015720258371366702 9 378 595
0.6592257604376701 0.9771283811585353 0.02099593384667231 9 379 416
0.5987630889849525 0.8542973964410918 0.018890039671906722 9 379 469
0.5893829140472375 0.8324658607384959 0.017624157373719584 9 379 478
0.483296180181331 0.6300854143611236 0.018374294438399108 9 379 567
0.6413602098928233 0.9590745354045009 0.02347553739660113 9 380 426
0.632125942203386 0.9375294867137722 0.02220720113718755 9 380 435
0.559496428005269 0.8001126216601273 0.023109884104737022 9 380 496
0.40562162982305416 0.4778289058500651 0.014446388503168706 9 380 633
0.5840666115153308 0.8265188663901213 0.012886452457004816 9 381 481
0.49533221143082495 0.6704660917846887 0.018026431509840957 9 381 552
0.6644876252343728 1.0137331578479867 0.02075641030285791 9 382 403
0.6541403503445499 0.9900327894343343 0.019476745431878717 9 382 413
0.6046772825675524 0.9084190468796512 0.024189677564143475 9 382 451
0.5442665436054848 0.7838977703008292 0.02145287771736082 9 382 505
0.5337770006728092 0.7635293267665173 0.021406025057795874 9 382 514
0.4304112739765157 0.5574028700702671 0.019094122781475598 9 382 604
0.4092108860991791 0.5126280830211694 0.01776598132659868 9 382 623
0.5730289101557993 0.8473175743575754 0.021107952622805293 9 383 478
0.4645685907202548 0.6258949875169519 0.016913550486550966 9 383 574
0.591952405989769 0.8991752974484897 0.020274294077954558 9 385 457
0.5161020590397676 0.7608886085392357 0.023042996318551 9 385 520
0.4422926123742935 0.6013691961934315 0.01711978152488547 9 385 588
0.43132517681105664 0.581872558121098 0.01769232311955815 9 385 597
0.5769513778025854 0.882983869646629 0.021631709402672783 9 386 466
0.5696198788816933 0.8597566242768939 0.018483519944355487 9 386 475
0.5037091917521679 0.7425615416408058 0.021927683604798576 9 386 529
0.620974573119 0.9867775833157617 0.025145957316796475 9 387 422
0.5458579093500886 0.8427137317612426 0.025435073903634198 9 387 487
0.6046421221754791 0.971551669600961 0.027792931461231074 9 388 431
0.6028188058292501 0.9503937731005854 0.018600823168073877 9 389 438
0.5314555205026691 0.8261718789810252 0.023304938425558364 9 389 496
0.4540887178001498 0.6633856967191636 0.01856439084338135 9 389 567
0.3789851785411368 0.5193443795030526 0.01885674448601793 9 389 632
0.5003216288349531 0.7696276465454462 0.021513070575482462 9 390 522
0.4644331285868424 0.7053166248410112 0.023241048231816386 9 390 552
0.6358778787466506 1.0457109286119035 0.023624021368010117 9 391 399
0.6203625948406826 1.02991027313554 0.028603017030764843 9 391 408
0.5819377530090135 0.9391800645722657 0.022752102032024157 9 391 447
0.580518247404058 0.9274695284707908 0.01959058585668605 9 391 451
0.5091275207668419 0.7977982032592165 0.02242688738292198 9 391 511
0.3905122605180118 0.5603093411194031 0.019372893925496237 9 391 617
0.42480414094213015 0.6218552463109868 0.014716492228164402 9 392 588
0.61245313928654 1.0294723508991985 0.02785611998520776 9 393 410
0.6041292384494032 0.9990060273870014 0.02274521470251567 9 393 422
0.5351371359660684 0.8614624356247855 0.021168641613790617 9 393 484
0.5237507818218089 0.8429282968603098 0.022386195773959505 9 393 493
0.4869534003727032 0.7661119846533256 0.020319179768816698 9 393 527
0.5596400875854091 0.9165034492522258 0.020920637333244896 9 394 460
0.4051608543690921 0.6147516189207423 0.019594881725974456 9 394 597
0.6014940784889229 1.0284319594729352 0.029045862451900772 9 395 413
0.5442450564901136 0.9047721620986344 0.024328421421233815 9 395 468
0.4206671447005611 0.6683801693610263 0.025051217298815653 9 395 577
0.5063432790163795 0.8296929510831517 0.02063545449362869 9 396 502
0.49908922907301045 0.806689866451774 0.017408144441039664 9 396 511
0.5783982406032948 0.9912976195099266 0.025754627574756883 9 397 431
0.4498291075954457 0.7273882606415514 0.020055851801215052 9 397 550
0.43172723612159325 0.6851102614726197 0.017412667473393872 9 397 568
0.3874214291223015 0.6044238640478508 0.019136499576572708 9 397 606
0.37510079616155945 0.5680260219697997 0.01459748542363326 9 397 620
0.5649811925589746 0.9744382362036147 0.026031964416572406 9 398 440
0.3607198384207053 0.5546598819593704 0.016771507867006763 9 398 629
0.5565523134438444 0.9690319053443446 0.026988000077957097 9 399 444
0.5327342053648301 0.9014339440462604 0.01915663165172765 9 399 472
0.5914230028215619 1.0352464688880856 0.023635972611455447 9 400 413
0.5475860286428029 0.9483468251790788 0.02279480019435387 9 400 453
0.4841130053597862 0.8322059501168262 0.0250926169527661 9 400 508
0.39298050261860196 0.6285828688127337 0.015005476898878212 9 400 597
0.4655578041534896 0.7911282502592432 0.020206526146896553 9 401 526
0.5746049522850527 1.0209084214711144 0.024308339828048142 9 402 422
0.5406998156868674 0.9603957645732827 0.026102467780148242 9 402 451
0.5012278875043628 0.8731022549471948 0.022035101818401293 9 402 490
0.44193219067540024 0.749089712069237 0.018527662295898972 9 402 546
0.55262646085754 0.9838266984082573 0.02330286445547891 9 403 440
0.5300651110438388 0.9382441824565143 0.022551953659208923 9 403 461
0.4881037576576286 0.8567642302263816 0.022364528809746043 9 403 499
0.38784708208276175 0.6496754136865213 0.017365987309861608 9 403 593
0.550567523341128 1.0124984573199378 0.02650358414766152 9 406 431
0.4067954679270588 0.7138681570106216 0.01865775342915499 9 406 568
0.39869321732834595 0.7069788267805361 0.02189593945987811 9 406 573
0.3698834201100909 0.6404242995085432 0.017838053561596068 9 406 602
0.35006427130757567 0.601939761538385 0.01774952922477091 9 406 620
0.3425018661136737 0.5907925511381578 0.01902548556193162 9 406 626
0.4531296020200051 0.8270862924563567 0.024544221215838435 9 407 519
0.354867630458362 0.6168432585887818 0.01688426167370516 9 407 614
0.5654910955308606 1.041993957296866 0.020893022830252628 9 408 417
0.4165395906889029 0.7530249506239378 0.017384298312975166 9 409 553
0.4945918958779695 0.92247961660398 0.021498656065878752 9 410 476
0.4337559845434307 0.7972982075262878 0.018582027760052022 9 410 534
0.4042911191625036 0.7365581999915973 0.017127970686308558 9 410 562
0.526994395971224 0.9979817876845014 0.023449319802073543 9 411 442
0.47929529518312153 0.9088829651902011 0.024561894434148357 9 411 485
0.4773098066210899 0.8979823619067341 0.02190177055666087 9 411 489
0.4128190276036243 0.7674710825530282 0.01962523451207676 9 411 550
0.5349335516641698 1.0242037512992872 0.024645344742016073 9 412 431
0.5090617326880413 0.973966225476911 0.024529785509874502 9 412 455
0.3672027096948509 0.6932268295313144 0.0219029079422266 9 412 588
0.4301082991973948 0.8208965451007598 0.021357633798973596 9 413 528
0.49593000150550703 0.9577363677376739 0.022166826436779696 9 414 464
0.45200598224329314 0.861903871865003 0.01796506471684034 9 414 508
0.3216098044352783 0.6034319258433434 0.015379930690612276 9 414 630
0.45142706207229155 0.894604256902154 0.02504898003250644 9 416 498
0.4356267829110252 0.8498918892014365 0.019612243014632602 9 416 517
0.4861603668266766 0.9692846856047548 0.02508983491708605 9 417 463
0.38841121231796016 0.7639409538920265 0.015787230638837357 9 418 559
0.35958362109555697 0.7149680594423771 0.01835430568326779 9 418 584
0.47391258950189064 0.9494503786040978 0.02078207607419358 9 419 473
0.43941533225006646 0.8772157073691232 0.018601445579331743 9 419 507
0.32392590048130476 0.6617075910633656 0.021463281826562763 9 419 613
0.3188607758105574 0.6431246043151377 0.01806297582634786 9 419 620
0.46060980289650677 0.9343337761584685 0.02198184079582366 9 420 482
0.4543436733382258 0.918670039877437 0.020599536391730733 9 420 489
0.43972814017203254 0.9025262873440133 0.025274199362313787 9 420 499
0.4239960427190739 0.8649856231256611 0.022495378855501236 9 420 516
0.4861588425533804 1.0016303217948488 0.026085782054972473 9 421 452
