2.5075795207550526 0.8909999854790744 1.1427405321689963 9 4 158
2.490937505201186 0.8569060341970105 1.142906842440817 9 4 167
2.5058020766634623 0.8371617273159113 1.1401224862258257 9 4 170
2.5062700033743077 0.8231326172262847 1.1393308126277801 9 4 173
2.5112995729634204 0.8117620852937757 1.138142437420857 9 4 175
2.513277669793799 0.768637696458637 1.1356454401635898 9 4 184
2.522541848495936 0.7502977178949015 1.1335932499141703 9 4 187
2.5214963694877754 0.7121525935528554 1.1317131859390785 9 4 195
2.4983129538556073 0.7130187517205708 1.1344842890731353 9 4 197
2.507277894444567 0.6795859078283335 1.1316747618796983 9 4 203
2.503018456063428 0.6369824559939687 1.1299384516121602 9 4 212
2.4959860086278303 0.6253926014714382 1.130156663923437 9 4 215
2.50668912815598 0.5998751906651869 1.1275584178149007 9 4 219
2.5138318170052516 0.7401474808442603 1.1299210417838166 9 5 190
2.5023353439036082 0.5665373193726293 1.1220178189659085 9 5 226
2.500930388156096 0.46223444690421456 1.1122171616794247 9 6 246
2.500807695715894 0.8815346412573581 1.1309514193757515 9 7 161
2.518827616812562 0.8516204483931511 1.1271169641803807 9 7 166
2.5116109401723388 0.8361185041060102 1.1271369025198672 9 7 170
2.511266117773908 0.7990328440844592 1.1251333512653359 9 7 178
2.520012635041363 0.7525938998336892 1.121511769033801 9 7 187
2.5291273546256914 0.7341214332028834 1.1193879607452637 9 7 190
2.5152613248273914 0.7112263374242596 1.119806276369585 9 7 196
2.520816459503137 0.6841551922110931 1.1176397738273764 9 7 201
2.4993515750643596 0.6196025234061631 1.1166818204530737 9 7 216
2.5111983106227327 0.5573302268045763 1.1118111431929156 9 7 227
2.532873411453565 0.6589824722953987 1.1105114785321462 9 8 205
2.49721207909127 0.5802513155329507 1.1104667783014794 9 8 224
2.517133436227925 0.7926886364646786 1.1157839270063032 9 9 179
2.509440823074043 0.7436408966826284 1.1139435571850267 9 9 190
2.5040362985458753 0.4985755181897702 1.1006626468366414 9 9 239
2.5234776115242807 0.8326192197904323 1.113145684234805 9 10 170
2.5182688502932304 0.8856731023181332 1.112783755852218 9 11 159
2.554670691023459 0.6497170770733172 1.0943421187365963 9 11 205
2.5127662596237808 0.4620462346670071 1.088612870571052 9 11 245
2.5126256604933763 0.828649132168414 1.1060187879788068 9 12 172
2.498916726694649 0.7494709965744926 1.1030472415959596 9 12 190
2.5076819655253404 0.6321914852608908 1.0949426021413524 9 12 213
2.5094548005016013 0.5854278096424554 1.0919303601890797 9 12 222
2.5235692241336 0.5047378038651158 1.0853245120668085 9 12 236
2.5275074209428467 0.48139891338033225 1.0789680689052465 9 13 240
2.511454334046561 0.8253546306815867 1.0976892650624406 9 14 173
2.514004777057451 0.6996616927674812 1.0896445421240353 9 14 199
2.513687337427938 0.6500767814556103 1.08664283371052 9 14 209
2.510298017532886 0.6419664244998224 1.0822716053237686 9 15 211
2.4968184818935306 0.6232679353932415 1.0828745168728555 9 15 216
2.5138729050117683 0.8852208835330793 1.0928411388812258 9 16 160
2.504049033241047 0.8570557211628385 1.0923623833267553 9 16 167
2.5259882408093706 0.8202515391253016 1.087134564846424 9 16 173
2.5221387373612667 0.7840186145149173 1.085355641236481 9 16 181
2.520609461268587 0.7655419763970732 1.084391095564395 9 16 185
2.5160251973254883 0.7482792865890484 1.0839075088034829 9 16 189
2.51601223904127 0.5519994557185677 1.0715128064194466 9 16 228
2.521161624489882 0.8645157069337752 1.0864274057973669 9 17 164
2.519740843567119 0.8044397594375612 1.0827691262017916 9 17 177
2.5067666342013935 0.5413119790732013 1.0676480059108209 9 17 231
2.494483830885234 0.45708981984431607 1.0638940418964946 9 17 248
2.51823794746918 0.8569137147106676 1.0821796885159565 9 18 166
2.5147306056704535 0.5055131211497967 1.05982861030262 9 18 237
2.5289101034076884 0.6995875717923803 1.0662094057127374 9 19 198
2.527703834670775 0.8213254883602314 1.0701814915941839 9 20 173
2.5215818154709133 0.5501797153693149 1.0529227430519525 9 20 228
2.520105732335284 0.5191496154821933 1.0510541321776283 9 20 234
2.502570626169634 0.46403155125543116 1.0497829023963243 9 20 246
2.4903124444819964 0.7949388787966092 1.0693624945341558 9 21 182
2.514504693456252 0.5063277086066313 1.0464843066623515 9 21 237
2.5271882218543076 0.8463533074217338 1.0593261713944044 9 23 168
2.5247913832730893 0.8285724415942297 1.058429215998069 9 23 172
2.5014769019328202 0.6588971549983369 1.049932375039551 9 23 209
2.524603623912378 0.5175034910711953 1.0368478833917165 9 23 234
2.4848938375482033 0.6217110792414207 1.0453259575309468 9 24 218
2.5083265288831527 0.5422710651006708 1.0364002894942166 9 24 231
2.5133516623374237 0.49688025819507664 1.0324908512832132 9 24 239
2.5224896166853954 0.8816150351743313 1.0540824877879844 9 25 161
2.510624375859762 0.8164449988237237 1.0511411810741411 9 25 176
2.502570234297122 0.7818190465128316 1.0498297109563037 9 25 184
2.500469813486397 0.6850916331708294 1.0432367980362516 9 25 204
2.5080404461724517 0.7264905477472474 1.0407894550939945 9 26 195
2.504409246615258 0.6331235233060166 1.034575538871519 9 26 214
2.523454818960188 0.854376058562095 1.0435672572050927 9 27 167
2.507439807978499 0.5007411550780576 1.020057218680184 9 27 239
2.5066406621700654 0.6530308704674983 1.0269159341891125 9 28 210
2.48310609315115 0.4872042756189281 1.018111744597086 9 28 244
2.4992989769723284 0.6467461368976641 1.0231390985765851 9 29 212
2.4910484973340976 0.604730686110061 1.0212176087810294 9 29 221
2.5183902438458463 0.5329640322506941 1.0117757551552398 9 29 232
2.5036940753567007 0.8867347442325517 1.0362801703064903 9 30 162
2.512980249801166 0.7307159412921349 1.0230552327967963 9 30 194
2.4977797647556503 0.4904188019515774 1.0071098896843673 9 30 242
2.4975493652866434 0.7526580040640685 1.0227241857392686 9 31 191
2.502297735872501 0.6712727624410388 1.0157592286008768 9 31 207
2.4900460209671555 0.6417096105831086 1.0153425362282866 9 31 214
2.4842654849802748 0.5618768121193052 1.010088764775113 9 31 230
2.519273497734769 0.8206951264965061 1.020380845476622 9 32 175
2.506270666542832 0.7147568978665879 1.0141345751479878 9 32 198
2.487140919987163 0.5500906533251699 1.0042607337467055 9 32 232
2.5003862351024937 0.5110594071734462 0.9992092810792713 9 32 238
2.5310234281654775 0.8067279854250624 1.0131885432786265 9 33 177
2.492401108804007 0.7459823671530024 1.0143525271569862 9 33 193
2.508571542833299 0.7829831756800012 1.0104584052166246 9 34 184
2.502973727613562 0.5155260083535405 0.9900585210791761 9 34 237
2.493254035943168 0.4554775734286829 0.9867904531585157 9 34 249
2.4847478024833802 0.7501711082126754 1.0072199382557643 9 35 193
2.5072460740060034 0.6954834264472123 0.9993039890427244 9 35 202
2.4978278742329554 0.8454440204822324 1.0085806806111544 9 36 172
2.4916250577899137 0.683066355577141 0.9963462220981968 9 36 206
2.5096260787595543 0.6079054818229603 0.9873937893700176 9 36 219
2.5025507342071256 0.4836545364498199 0.9783990526182564 9 36 243
2.5100763838153215 0.887632215820048 1.005840878821228 9 37 162
2.488275640373571 0.7591274560115617 0.9987297032747532 9 37 191
2.472982214388708 0.6771679929771734 0.9944149394956334 9 37 209
2.514639577898226 0.8960920009197026 0.9973108684179854 9 39 160
2.53097543987628 0.8370741450162988 0.9548108117192902 9 47 172
2.4778435083178048 0.49402465144260344 0.9325053697110675 9 47 244
2.503164650278776 0.7421336715877007 0.946442393701647 9 48 194
2.491539369377748 0.6923667038767114 0.9438479378656263 9 48 205
2.485135703031953 0.6852545409312631 0.9442983046521504 9 48 207
2.5047105982003863 0.6455571581114299 0.9326856212599494 9 49 213
2.482675692893476 0.6043762085238868 0.9326784733007673 9 49 223
2.4943841907991025 0.8437845131812665 0.9486716454860089 9 50 174
2.496178427402553 0.7755679743569914 0.9419118575620232 9 50 188
2.4733440718737825 0.5936433879828764 0.9287391579614698 9 50 226
2.520085628471728 0.9185593023297081 0.9468933144078839 9 51 156
2.485019639584523 0.9087726796064282 0.9521692913517659 9 51 161
2.4798147307336285 0.9015525546664376 0.9524020960819961 9 51 163
2.5055221374799155 0.8012176142021914 0.9382758985180712 9 51 182
2.483740960303876 0.7021222306903494 0.932677669633922 9 51 204
2.503714177723264 0.6415197154574781 0.9233580995958183 9 51 214
2.5062044773142382 0.873073163186241 0.9406546464176756 9 52 167
2.5074738806093473 0.8536576753240306 0.9385571729948926 9 52 171
2.511928571460257 0.808660143026144 0.9334261718254132 9 52 180
2.4740520998164106 0.7123650823469392 0.9264296212073744 9 53 203
2.495177201735208 0.7825606572777346 0.9250214204743128 9 54 187
2.504403210255282 0.647367120896575 0.9100656719819185 9 54 213
2.524094866068144 0.8194962687316429 0.9189625136881721 9 55 177
2.474698364464598 0.610146817893543 0.907198481284049 9 55 223
2.5102182101639055 0.9202021391272586 0.9271396470302808 9 56 157
2.523050889599461 0.8588533577381461 0.918636501955997 9 56 169
2.5327201361161453 0.8406065697889102 0.915032375485739 9 56 172
2.5024862450762217 0.7406236426617379 0.9105699638783904 9 56 195
2.5043543659912175 0.7945780848378226 0.9111663203836684 9 57 184
2.494139325771328 0.7645910779770744 0.9100235538747672 9 57 191
2.4696273781837705 0.7358610070383573 0.9116531435541081 9 57 199
2.50829449955018 0.927096903893222 0.9151300975901598 9 59 156
2.5047318940466146 0.9098730174640808 0.9140237322225256 9 59 160
2.4715402718275747 0.7357513420710617 0.9023091431792956 9 59 199
2.5095496983534864 0.7598962357072372 0.884056443942371 9 62 191
2.4924187651179635 0.5278669638500966 0.8627579124695385 9 62 237
2.4627293733151863 0.5164347266855451 0.8672379597203084 9 62 242
2.5148043774391575 0.8025860168700163 0.8830552868666782 9 63 182
2.504858430613405 0.8363673665015923 0.8841086898576236 9 64 176
2.48996559179846 0.518682201444056 0.8527315711836541 9 64 239
2.512991460562597 0.9003922180604815 0.8850003740923381 9 65 162
2.510910153307625 0.887030471461715 0.8839533046969607 9 65 165
2.5139534134436716 0.8668115368588911 0.8811568383703322 9 65 169
2.4717383717770964 0.6616081761432437 0.867082852789907 9 65 214
2.484083597285464 0.7175914980833755 0.8661798980616328 9 66 202
2.502798922614683 0.7649245536272238 0.8631224833745104 9 67 191
2.484630226327199 0.6403797464215599 0.8529286017294658 9 67 217
2.4836311448553623 0.6198227700418464 0.8508492343731472 9 67 221
2.4945790270014383 0.9089509759793566 0.8762873159746591 9 68 162
2.4871804774681125 0.6862396704795184 0.8528730056725616 9 68 208
2.511840313275883 0.8114228470686069 0.8573887746981846 9 69 181
2.487357739095768 0.7774612063373512 0.8584838292400837 9 69 190
2.4848852935698797 0.7183539276308804 0.8523169993652464 9 69 202
2.48347240463709 0.6676764467676775 0.8468874899605473 9 69 212
2.4732179968168047 0.6256129970198248 0.8442074396543996 9 69 221
2.4677011828429007 0.5153048822899036 0.8328802277271183 9 69 242
2.459285793880497 0.5088510535203741 0.8338451413316202 9 69 244
2.495856700361392 0.8331421485212702 0.8585380040924472 9 70 178
2.491666417684542 0.756052347883235 0.8506195088259573 9 70 194
2.4900667507916285 0.7820847023303432 0.849339923538199 9 71 189
2.512500337372982 0.8223233098479776 0.8448198131987192 9 72 179
2.471857449439638 0.6999936207915793 0.8390081635639208 9 72 207
2.4841129027429765 0.6683990789537653 0.8328382904073589 9 72 212
2.464473574260747 0.6203292020029412 0.8313073840503986 9 72 223
2.501778263179678 0.8755191736486594 0.8486704973074095 9 73 169
2.504662300025661 0.7616019307164847 0.8347842603117873 9 73 192
2.4872015757519526 0.7391147912848466 0.8357675395923952 9 73 198
2.478318044905902 0.6348853158243628 0.8254423444212582 9 73 219
2.5032256585441237 0.9368253647806423 0.8510713016059978 9 74 156
2.5010371295466634 0.9095324173554877 0.8483152827919856 9 74 162
2.4854872110952426 0.8099940502782288 0.8398376745215566 9 74 184
2.4926258606681095 0.7921745406583955 0.836256804132787 9 74 187
2.4605278119744796 0.4981506485862419 0.808338370407466 9 74 246
2.530470705378373 0.9178356087783628 0.838655781320478 9 75 158
2.47789072194996 0.7289098616787406 0.8272468821529343 9 75 201
2.479149323085565 0.6821828789906095 0.8214398190412909 9 75 210
2.472635670400442 0.6592981363483355 0.82008811242258 9 75 215
2.513159132074591 0.8821125530194796 0.8335055919091114 9 76 167
2.4975287640290738 0.8690792206345099 0.8352393271094385 9 76 171
2.489605515680948 0.79927792086583 0.8285584202615722 9 76 186
2.4898674694376384 0.7391017668482225 0.8213045511618624 9 76 198
2.5003116913458174 0.7852069142745708 0.8199983702609863 9 77 188
2.4676588340338816 0.6414011506319368 0.809576876127997 9 77 219
2.4739200547269746 0.6224345170840153 0.8059615323903995 9 77 222
2.5189103088004616 0.9237360063151132 0.8282461762249863 9 78 158
2.506483141901616 0.9047702606663333 0.8285919915079112 9 78 163
2.4723435775894593 0.6864604326476162 0.8093298631803613 9 78 210
2.504701285176739 0.938931244258532 0.8286361816490769 9 79 156
2.5060493024455797 0.9149214336736813 0.8254030113895674 9 79 161
2.492428468238217 0.8826337236507413 0.8198332284798309 9 80 169
2.4772228337449906 0.8356825550600289 0.8173173808724359 9 80 180
2.4816468812042993 0.7745883799261208 0.8088100469412882 9 80 192
2.4857948102143643 0.7475886078627538 0.8045763146310551 9 80 197
2.491530387449597 0.7956823974746445 0.8046505148888096 9 81 187
2.457183201811188 0.6739730227148955 0.7969590576224258 9 81 214
2.4872238614455715 0.8177377049022341 0.8037253962162274 9 82 183
2.4830527872252777 0.719020271589788 0.7922407240909305 9 82 203
2.475790961628201 0.8522201044065558 0.8059917428756425 9 83 177
2.481340418551447 0.7859798570773429 0.7963837124967169 9 83 190
2.489513607329341 0.8373354175534791 0.7964748204510245 9 84 179
2.496705355424378 0.8146688305118908 0.7919882227472591 9 84 183
2.484714893111332 0.7241603572107642 0.7830986767163012 9 84 202
2.474248850458995 0.6615368582910905 0.7774290073704188 9 84 215
2.486960969892899 0.644810085034685 0.7724763048398459 9 84 217
2.46213745375063 0.5983492863959081 0.7720521736633569 9 84 228
2.5061075477638766 0.9037436803192025 0.7966952417222586 9 85 164
2.501679800682678 0.8958847518826392 0.7966725071835872 9 85 166
2.4862851977534692 0.878405862173095 0.7932804347772509 9 86 171
2.5068635961593855 0.8217173993112585 0.7766410564900004 9 87 181
2.482019842576667 0.79239575862653 0.7784237108120963 9 87 189
2.4924515490281567 0.6749146286035828 0.7607235101770881 9 87 211
2.4795482498281527 0.6227422901594997 0.7568243835920655 9 87 222
2.491763593544925 0.9297141318639204 0.7896064827248976 9 88 160
2.480578995317922 0.7172958404898233 0.7641915823317532 9 88 204
2.470814116145 0.6112910695710589 0.7524594549692499 9 88 225
2.476363005648296 0.8933778581323905 0.7837511592451134 9 89 169
2.4761180021849603 0.8456210509855442 0.7728442159040635 9 90 179
2.473861489963938 0.7467709404019116 0.7601535786902436 9 90 199
2.468312923741572 0.7236904327093623 0.7583459524695256 9 90 204
2.483101601548399 0.6433571118047872 0.7442076520705654 9 90 218
2.479762309069541 0.6349528239889639 0.7341329768651592 9 92 220
2.3868711020200464 0.7471753187620902 0.7663662304275658 9 93 207
2.467275155087112 0.8903249401325481 0.7578771678940545 9 95 171
2.345655827688012 0.7965049486886191 0.7737053209745711 9 95 201
2.4312419633215203 0.6650356684566807 0.7351705865692512 9 95 219
2.330068060835439 0.7548836611125418 0.7670656503058975 9 96 211
2.310964979928003 0.8277142131343238 0.7728552722807709 9 98 198
2.4582575712610932 0.6313983797503933 0.7094602987801794 9 98 223
2.472180339808918 0.5978925437531282 0.6914394940473954 9 100 228
2.292152071869597 0.8467341381464544 0.7667573398959612 9 101 196
2.2846900425345753 0.7974389293601589 0.7614489200623809 9 101 207
2.4691325506424064 0.6215174229489517 0.6906439056675985 9 101 224
2.29883426412854 0.8631087286016907 0.7630343381091012 9 102 192
2.2828930173025834 0.8274613582187613 0.7617725779637582 9 102 201
2.459662416018993 0.6325838189817201 0.6797825333425863 9 104 223
2.278148689033033 0.8032711221054349 0.7277977253072834 9 109 207
2.2660965156856916 0.7747817200991254 0.7265335934119059 9 109 214
2.463621272697002 0.6106933352791921 0.6455679463098475 9 110 227
2.2706517801609896 0.7488288677377621 0.7075791911066351 9 112 219
2.4831755351110063 0.6075869829048237 0.61973881148398 9 114 226
2.220610336894647 1.6599188495408428 0.43600909098870066 9 220 18
2.058086002357034 1.5859325608952548 0.4480827248700341 9 229 48
2.099255409691634 1.666018689707887 0.44030324011422595 9 232 23
2.0725887838932375 1.6395422457953939 0.4446215078272715 9 232 32
2.062688259674474 1.6243064549754989 0.44461786448238216 9 232 37
2.010527999699467 1.5490786958882525 0.44186279215390956 9 233 62
1.9874850576159493 1.6118761366661465 0.45466569052653383 9 237 45
1.9614442788014852 1.512969824604039 0.43675466328518264 9 237 76
1.9938175655372272 1.6311837608825268 0.4534435876841483 9 238 39
2.0022165856963667 1.6204338763025063 0.44623206354915657 9 238 42
1.9715323759633354 1.5524821344276136 0.4398572761773576 9 238 64
1.9515677800925504 1.526391571487783 0.437034044196863 9 239 73
1.9295049295826137 1.5972765803836921 0.4609607598382406 9 241 53
1.9204454389930834 1.540039514858507 0.44755615115923053 9 241 71
1.9168997967863612 1.5708946151643295 0.45466747198423585 9 242 62
1.9185565464275411 1.5688313391011068 0.44498980825464196 9 244 63
0.8441357121859249 1.0165673632047636 0.7282188599666805 9 264 381
0.8334496564379327 1.0393199291627773 0.7296960157908888 9 268 377
0.789373934829811 0.970158895225522 0.7259156766644732 9 269 409
0.5725205411406556 0.22878362131694763 0.5788867490546066 9 270 630
0.7731672845836037 0.9893586629416958 0.7294016314802795 9 273 408
0.7610716435492814 0.9804366719776103 0.7297827719579992 9 274 414
0.7581415076543859 0.9691677729500326 0.7273587860147939 9 274 418
0.7722230016335649 1.0037506910416207 0.729136408895134 9 275 404
0.8202547859393708 1.0796506916192152 0.7273668525871709 9 276 368
0.8105479538249324 1.0719374663997097 0.7298573780401361 9 276 373
0.5538634360824386 0.22697098677804028 0.5665507621602144 9 276 635
0.7621033851912854 1.01317868653316 0.7292201212353641 9 278 404
0.7433275225054193 0.9656079355953471 0.7223026436377585 9 278 423
0.5609651220550217 0.22703144390089358 0.5481502109100868 9 280 631
0.7829964772225174 1.0761434974643707 0.7290122758061712 9 282 379
0.7702249479569153 1.0584271378480934 0.7295835197050523 9 282 388
0.760886056974654 1.0440431974897733 0.7294779084788195 9 282 395
0.7494005174715936 1.0109605313471666 0.7237121002579012 9 282 408
0.757744461722207 1.0331582760132036 0.7243223541055506 9 283 399
0.5610944295753634 0.226399570810341 0.5368310618534423 9 283 630
0.7604248982733031 1.0674502644245998 0.7325735930559366 9 284 388
0.5691979156686927 0.23167666878865267 0.530579716621376 9 284 626
0.7927071393022767 1.1185247424220393 0.7305877761634247 9 285 363
0.745434409685439 1.0271188254326915 0.7173098607929413 9 287 404
0.5570126090123771 0.21973745858543392 0.5218431612545561 9 287 631
0.7728245048863331 1.106931165421728 0.7288418563819755 9 288 372
0.5463548647716389 0.2184399130321366 0.5162333684591219 9 290 634
0.7411942118770382 1.0506589429306477 0.7169434722430609 9 291 398
0.8288208232583669 1.239850555084788 0.7330723038647413 9 293 313
0.8117032753121273 1.2118660516502682 0.7322173554054907 9 293 327
0.7445357202042342 1.1031483991878375 0.7292795767778005 9 293 381
0.7443971814612973 1.0902378692849426 0.7244240311664113 9 293 385
0.7603201818701482 1.1453741196545708 0.7335333901104265 9 294 363
0.5481209513189389 0.2030546169535099 0.49437257245005184 9 294 634
0.8385544124831608 1.2837007298094525 0.7331340715154624 9 297 295
0.787315285855689 1.209808466347016 0.7343332389257499 9 297 334
0.7448440807376576 1.1368202229814448 0.7307694972786266 9 297 370
0.775496811214339 1.192539675449852 0.7317265133738644 9 298 343
0.7633378026128036 1.1756729898335583 0.7322703604994217 9 298 352
0.5799030951392526 0.24922238808428787 0.47859375113245917 9 298 615
0.8211618495019897 1.270464953378279 0.7325860635003069 9 299 304
1.099700884409406 0.6906290294302442 0.3421371539710152 9 299 395
1.086334527386995 0.6945577819182263 0.35152549535018274 9 299 397
0.8416014167657168 1.3063569995351705 0.7318467758329881 9 300 286
0.8074756990849157 1.2548098060910178 0.7317203151897658 9 300 313
0.7412995961047346 1.1517886169641627 0.7302727675749983 9 300 366
1.432649416857851 1.4933002401848108 0.4531160551213118 9 301 131
1.1073216258807075 0.6916459028717368 0.3295482253910955 9 301 393
0.8122745670691593 1.2765181248111346 0.7318832450579661 9 302 304
0.7882856659998266 1.2432412955994407 0.7329562186300211 9 302 322
0.7379679358247531 1.1132413037855045 0.7113843166367397 9 302 379
0.7409183897408381 1.138890638572433 0.7169490321569972 9 303 370
0.55152609691516 0.1768941937179378 0.4476462190477122 9 303 633
0.7428511546960473 1.1770581634979487 0.7281730346467613 9 304 357
1.114379706220127 0.6922894596750571 0.30844385586427525 9 305 391
0.764830579415762 1.2350911700839324 0.7326673077634872 9 306 331
0.752648813379496 1.2186966246125288 0.7306539056087649 9 307 340
0.7457416847330738 1.1979734655388614 0.7264693091611341 9 307 349
0.567915036535165 0.25772368107205046 0.4547009413769747 9 307 615
1.3914596260967582 1.5138016751788497 0.4563666293572761 9 309 129
1.3729745659588448 1.4867697784382707 0.45662863848113844 9 309 140
0.7759342385518866 1.2770303357991812 0.7346524474332601 9 309 313
1.372138384538597 1.5020170266678856 0.4596720717841942 9 310 135
0.5643898406658971 0.25935373980655196 0.4459667453085061 9 310 615
0.763006373710886 1.272554453506257 0.7352584814342853 9 311 318
0.5555196596223205 0.2358180181299674 0.4379084120032084 9 311 621
1.3625199005632747 1.488151283296246 0.45254165702175597 9 312 141
0.7435365405317269 1.222473150082978 0.7239178980650922 9 312 341
0.5598688825568975 0.2514304305573045 0.43776863013092826 9 312 617
0.5505209792687539 0.16226491668296994 0.4068713466525089 9 312 632
0.7621258674931162 1.2921338281760781 0.7357064588705996 9 314 311
0.5593095364004774 0.2697693028443555 0.437949222322622 9 314 614
0.7470275298954083 1.2592276785179854 0.7286961377193175 9 315 327
0.7697488163967371 1.318821103949503 0.7366533518323953 9 316 299
0.5537490375984059 0.19695754522323283 0.40330862832898706 9 316 625
1.358008100475652 1.523408543971637 0.45162284769944017 9 317 130
0.7462582259024371 1.284399351103981 0.7315256348605453 9 318 318
0.5554537543294147 0.24997973254429517 0.4087108284257712 9 320 616
0.5527492798931222 0.21188439007972493 0.394290392774302 9 320 622
1.315142327418473 1.5054465186858224 0.4564916497985587 9 321 141
0.5527813271820111 0.18580950871554291 0.37920065853459617 9 321 625
1.3966827368225445 0.6792450704923754 0.04855598494482516 9 322 342
0.555074707811846 0.23832873004090604 0.39610536649201333 9 322 617
0.5550389058161294 0.1121623239035916 0.3423119674798225 9 322 633
1.2990092522694097 1.4852299230586072 0.4508803523852969 9 323 150
0.5555893021167218 0.2567856280891134 0.3997099972257592 9 323 614
1.375852620726104 0.674373809452643 0.044475253085727084 9 325 346
0.5557083332062419 0.2513467421648665 0.38938120922085084 9 325 614
0.5538540702173907 0.13125925253026627 0.33878130180888477 9 325 630
1.3004195497291022 1.5368625389584112 0.4613846128721679 9 326 132
1.291320507935952 1.5263335250008963 0.4555324864197585 9 328 137
1.2724526444161461 1.4838155524040508 0.4492491108643035 9 328 154
1.3583820543176763 0.676845900459599 0.03133640841052188 9 330 348
0.5622848730905686 0.15016330278192913 0.3206753862698162 9 330 623
0.5605134448799698 0.14925378395135214 0.3130414879344099 9 332 623
0.5587570072413612 0.12659845383963564 0.29993138937319164 9 333 626
0.5653763048756631 0.22523103141105438 0.335250288509346 9 334 611
0.5631448626623132 0.1923624733538074 0.322080649337928 9 334 616
1.3046886769358075 0.6735798025440551 0.039879988158030955 9 335 357
1.236018175014632 1.5202267122688742 0.4607332390889767 9 336 146
1.073568441069112 1.089618032171999 0.37585241986558215 9 336 305
0.562156476883897 0.17358682787275548 0.3059736964038131 9 336 618
1.228033647052638 1.4953194210552143 0.4513168785625934 9 337 156
0.5645955896850076 0.22434438283816371 0.31885537255646046 9 338 610
1.062838242889851 1.0965959284560196 0.3512883306036576 9 345 305
1.1944815913621618 1.539230210256825 0.4589861432778082 9 347 145
1.2088272758603786 1.5810401834563272 0.4616410958676498 9 349 128
1.1869471374781086 1.5636101173258974 0.465239602568277 9 350 137
1.0605385257435145 1.0902272603485934 0.32229117750882974 9 352 307
1.1614814124722062 1.5350945329842052 0.4592094814899532 9 353 151
0.5622417242139278 0.21336786371143446 0.25204706807041166 9 353 607
1.0629360926015663 1.0920723545092548 0.30549194073783137 9 356 306
0.5590808177408663 0.20552127337441917 0.23758207721462998 9 356 608
0.5588611861833624 0.21368516494719847 0.22867653794997955 9 359 606
1.0708859852911563 1.0938418294153816 0.2804092491806782 9 361 304
0.5567917073046305 0.2809694855145164 0.2502232386117571 9 362 597
0.5590876032717479 0.30264079872907 0.25499327626434276 9 363 593
1.1350321747359897 1.606312808895713 0.4684643722751225 9 366 128
1.0632022798071576 1.0950789620169903 0.26620153263377877 9 366 305
1.5373383854292317 1.3142782833437425 0.021215333149914972 9 367 184
0.5567153130556716 0.2985505382377689 0.23769016401256016 9 367 593
1.064983379098852 1.0937075221433463 0.25597156506781915 9 368 305
1.0832317935295164 1.5357948218389352 0.46126097974942293 9 369 162
0.5537219375153484 0.29094056306072247 0.22321299518067206 9 370 594
0.552440027582999 0.27633320369736714 0.21244174245787306 9 371 596
1.081026103842484 1.5609346553452812 0.46209059656254414 9 373 153
1.0644870434773037 1.0974396163630158 0.22497736831780202 9 376 304
1.0517481737450514 1.094408900059659 0.21216212487598485 9 381 307
1.0607351680842128 1.0956786966346526 0.19312935675305587 9 384 305
1.3568380356314342 1.2571834019913317 0.0285883647598415 9 388 220
1.0007190554416272 1.5656745428993548 0.47319993042036623 9 389 163
1.008791009653432 1.5810177845120712 0.4684741234773362 9 391 156
0.5534894041434796 0.37804795370790956 0.17376631139104215 9 392 575
1.05941001639676 1.095830140197528 0.14242482473528773 9 396 305
1.2286108827039106 1.144054810702551 0.026999263260601314 9 397 266
1.0765091141318217 1.0796440793141002 0.11066697420739868 9 398 306
1.2033846641789019 1.1350758041771931 0.01899198117238199 9 402 272
1.186716129256782 1.1249070934304761 0.02232351275507538 9 403 277
0.9929144173892976 1.6330073275935435 0.46427011209328817 9 405 138
1.0649794829744288 1.0993508364085087 0.09996128776265567 9 405 303
0.9390838704403308 1.5810783385520204 0.4731527209816906 9 407 167
0.9309246426075559 1.5622790042812604 0.4692260050514878 9 407 176
1.2808341911677064 1.3186380179521484 0.03069589676819473 9 408 214
1.2601277614191275 1.295266201479409 0.0300440158955384 9 409 223
1.2428671465615049 1.2514200084426323 0.019322528291850993 9 409 237
0.9688772033182529 0.8638841765662799 0.027267436673174217 9 409 375
0.8909107662882263 1.5214921037871103 0.46971514719502405 9 410 199
0.8832457317208492 1.502162047578947 0.46501876937299835 9 410 208
0.9051071604060791 1.55062804057849 0.4713060863377794 9 411 185
1.271203832325019 1.320075245877188 0.025689429383883855 9 411 215
0.9482742818684724 0.8547410695797175 0.03003354218006904 9 411 381
0.835471140004091 0.6945402337647582 0.032914731311078915 9 411 438
0.9426671381791616 1.6054691472739486 0.4647150609167887 9 413 157
0.8950491654603556 1.5550072198801952 0.47273626025192983 9 414 185
1.0600770918141076 1.1062617983238199 0.06749458168795175 9 414 302
1.2396658916021772 1.298868583850737 0.021619594873758974 9 415 225
1.231746791514851 1.2878833978118005 0.021973799723893794 9 415 229
1.2079989948191947 1.2660574115997187 0.02958397318055006 9 415 238
0.5916985015831986 0.6816407328553127 0.21648515695052128 9 415 508
0.5555607390817406 0.6413924629721564 0.22392191544426954 9 415 527
0.9155707455167394 1.5935903925088446 0.4713079443715702 9 416 166
0.9025249921757351 1.5767273966644302 0.4726205819445628 9 416 175
1.190823127454358 1.2413606186607247 0.02518553631377851 9 416 247
1.0474643467805809 1.0536000097798488 0.03815948209677167 9 416 317
0.89329680853498 0.8224707224670258 0.03484780158063572 9 416 399
0.7757934186277031 0.6446682914512942 0.03135429266205758 9 416 461
0.8751718140154963 0.8223503886124444 0.04581808545763533 9 417 403
0.7773269858493637 0.6582807631310359 0.033389990793112334 9 417 458
0.7275535744449897 0.6594741103311854 0.07726210121359034 9 417 471
0.8595363826433503 1.523486277950537 0.4718702198214466 9 418 204
1.0696156911336603 1.1355097509870444 0.058318371349064924 9 418 293
0.5777564125386903 0.6747556641507808 0.21210800833185806 9 418 513
0.8687335116485714 1.5443530809046222 0.47306169439244794 9 419 194
1.2261288321460455 1.2988394183199328 0.014654163306349055 9 419 227
1.1925726850421072 1.2817948879437426 0.033763845397739356 9 419 236
1.1229303449062822 1.180271457715295 0.03394403376133659 9 419 273
1.026720712237387 1.039435747124222 0.03384505009472516 9 419 324
0.8799666790155674 1.5643460098783946 0.4719717317575416 9 420 184
1.213511085817083 1.2939938691214146 0.018116365505391308 9 420 230
1.1761655617074718 1.2421890522177574 0.01978675300202326 9 420 249
1.1603805366147395 1.2166088140667268 0.018287056778788724 9 420 258
1.094919282706269 1.166322159207668 0.04547782964692759 9 420 281
1.0860711865056127 1.1601876253343892 0.04954976986369064 9 420 284
1.2179894696692937 1.3067081355754466 0.017154516220368565 9 421 226
1.1371972699074266 1.2105784614397548 0.030346242653303213 9 421 263
1.046936688235966 1.0988616881968833 0.04248794271633116 9 421 306
1.0471447590508414 1.090565493487218 0.037321246437213684 9 421 308
1.0216192072543895 1.0514778064514256 0.03625261622727782 9 421 322
0.7368803696970143 0.6344195381609825 0.035726469296660346 9 421 472
0.833777697803106 1.4907032626306882 0.46180650911558585 9 422 222
1.1858405448816127 1.2600306559736283 0.012672092395988654 9 422 243
1.1228013387450964 1.1921834208036863 0.027304672345949577 9 422 270
1.114282378510619 1.1779161083274774 0.026209020733346744 9 422 275
1.0038329886105108 1.0185786141234883 0.027457650492358043 9 422 333
0.7235087006432664 0.630944480891066 0.04073431541087946 9 422 476
1.1831275846397498 1.2909024168025791 0.029056095282326222 9 423 235
0.872775268231244 0.8408132132531763 0.031099967329034417 9 423 399
0.6439634870938362 0.691029256539003 0.14269295110802593 9 423 488
0.6148976717226013 0.6849676068432764 0.16470865634853848 9 423 498
0.5625285867682847 0.667379668817019 0.20034408820312 9 423 518
0.8373883335455534 1.521644390039926 0.47084625965141 9 424 209
0.830585539743447 1.4999874041873589 0.4637367355894848 9 424 219
0.7812425340400361 0.7007644832479902 0.02259811420125546 9 424 448
0.5541003431169872 0.6471932091517236 0.19141314818200805 9 424 524
0.8552791997325655 1.5532861174310892 0.47097350593218934 9 425 193
1.1603271672364777 1.2587441255499874 0.02049454701930964 9 425 247
1.114348271284554 1.197404417787701 0.02403690092499522 9 425 270
1.069991764110337 1.1627266984759113 0.04236500259804776 9 425 286
0.9833357635123541 1.0217698661544685 0.03361139593674212 9 425 336
0.7296870996511893 0.6406206858015757 0.02712654253714275 9 425 472
0.695019310520437 0.6437945192742374 0.05987969043551544 9 425 481
1.174419927537061 1.2993736461706114 0.028089908159786958 9 426 234
0.8235755983962176 0.806595224630817 0.04006018664638722 9 426 417
0.772352120215942 0.7001848593060611 0.020762159428253435 9 426 450
1.1381854266246536 1.2372699791859383 0.017840737611769297 9 427 256
1.0596040900050283 1.1538344942470709 0.0370211971316472 9 427 290
1.0223136104545323 1.0874942052186913 0.02973729273539316 9 427 313
0.5862208550076463 0.6798169703719199 0.17009282765468692 9 427 507
1.1665634400626335 1.2928026484088508 0.02185768486902373 9 428 237
1.100822976713368 1.197960434738067 0.02255553169323532 9 428 272
1.0380261681496323 1.1327417618022402 0.03881973593260524 9 428 299
0.5617157745057079 0.6726880122279837 0.18346559903611648 9 428 516
0.8493538405250132 1.5588838033383805 0.4668317625467533 9 429 192
0.8236717103455778 1.5402645739402305 0.4784673491372149 9 429 204
0.8029874301431649 1.4909211886299432 0.4666584408859704 9 429 228
1.0669253294164942 1.184084632253072 0.039874087287788296 9 429 281
0.6815363890409744 0.6373348051962804 0.04962105330341826 9 429 485
0.5788044829808509 0.4571708006336914 0.03099526462041169 9 429 544
1.0363391419488703 1.1298379081984957 0.029349153058656263 9 430 300
1.0311586434727693 1.121438453234628 0.02883032492781812 9 430 303
0.9928382452956419 1.0804140972839003 0.038050263736906675 9 430 320
0.9891169554077577 1.066758949297666 0.032962474640815254 9 430 324
0.8134002051632496 0.810876097519313 0.03331597160649169 9 430 418
0.7888930207919481 0.7805201819224779 0.03666392897443638 9 430 430
0.7844654217288507 0.770738458707056 0.03461016419366003 9 430 433
0.7620097560511279 0.7323089139506465 0.0311110446916536 9 430 446
0.6238388257987205 0.6935146302748092 0.13186611341113053 9 430 492
0.5855730540677153 0.4887733367873712 0.039753231860926386 9 430 537
0.8038586433766346 1.5056902223586863 0.4685666451758106 9 431 222
1.153473870769825 1.2817531365030745 0.012932366384327487 9 431 242
1.0741135120098106 1.1874198842471388 0.02625961505635388 9 431 279
0.7170880749636054 0.6642910141365896 0.024929688680552342 9 431 470
0.7104440692455397 0.657498218494645 0.026731104341115364 9 431 473
1.0387016801346305 1.171312345276287 0.04378412007535193 9 432 289
1.0122992537022364 1.0983765686713212 0.022354965717437114 9 432 312
0.8172733751966368 1.5390216012358613 0.47071818810460253 9 433 206
0.9666963841228748 1.0463428284184555 0.026772354384747565 9 433 333
0.5566538024747092 0.674592739552174 0.16821076190316941 9 433 516
0.5518814065466017 0.6304965733733812 0.1450129188473983 9 433 525
1.1098546759561476 1.2609631981351515 0.025795176595690972 9 434 254
1.0977979722732127 1.2454459279700023 0.027091221866683668 9 434 260
0.7457111684941811 0.7510023288578445 0.03905564140966167 9 434 446
0.6914266825382878 0.6551736884128947 0.028619146322471867 9 434 478
0.7894461336181742 1.4982067197572646 0.464153801267404 9 435 228
1.1415212169195081 1.3100391305381431 0.02301424285361864 9 435 236
1.0727441127275499 1.203779235091135 0.019265981433967738 9 435 275
1.0187820373901642 1.1337483588415578 0.024712741901511404 9 435 302
0.9817271889787644 1.0799346770860363 0.024853508258272594 9 435 322
0.736445933886353 0.7035068695033924 0.01307621523699165 9 435 457
0.7195376698442479 0.6897000320383477 0.01989869477050954 9 435 464
0.5794476780911718 0.49175256850126337 0.023889788932663913 9 435 537
1.1135165940720777 1.2883799266261442 0.030506424500264195 9 436 246
1.0321863396615274 1.1755605449487003 0.03414415735592202 9 436 289
0.7541545021193347 0.7585637222748389 0.026824857485868936 9 436 442
0.575758286184193 0.6857530700921726 0.14497662530183386 9 436 507
0.587304872669372 0.5271139110811638 0.03428769383629504 9 436 529
0.5715077985335522 0.4931553353880065 0.027396168459414394 9 436 539
0.7969183655737426 1.5244335960060114 0.46740000687548244 9 437 216
1.0662364014920378 1.2303225417339982 0.0328068404240498 9 437 269
0.9915201270784801 1.1170533546327368 0.030057962655264392 9 437 311
1.0535079348964649 1.2117717320616548 0.028234056852610268 9 438 276
0.6682423773543377 0.6412922038072613 0.02257965657396177 9 438 486
0.6551691634580534 0.6339719087705735 0.030030379309735844 9 438 491
0.78052319347657 1.510292877541072 0.46718864567507357 9 439 225
0.770473574566857 1.4855510052356111 0.46075842784260823 9 439 237
1.057477131966831 1.23559442555791 0.03513573287153937 9 439 269
1.0041807038340733 1.1436606651737584 0.026053316407494753 9 439 302
0.5574576053784063 0.67519602202051 0.1423509768028286 9 439 514
0.557733155391867 0.4895550583348074 0.023853929316191014 9 439 543
1.1088147067872143 1.2951203640219608 0.02080992240287438 9 440 245
0.5941148351426039 0.5451803277015488 0.020852791935077608 9 440 523
0.5823978634905693 0.5229333755712897 0.017547103748210002 9 440 530
0.5653084956786782 0.5255985633062825 0.03516241855899116 9 440 535
1.0379397647857804 1.2138845260698614 0.03033325351806404 9 441 278
1.0285538634601425 1.2008646284718698 0.030753065332003393 9 441 283
1.0282460099742696 1.1896625588561247 0.02385947426161472 9 441 286
0.9551956852294712 1.1113660606969908 0.0373482647894432 9 442 319
0.7224462990724736 0.7490411722857799 0.022380836561381123 9 442 451
0.5553534898985458 0.5160583412872195 0.029085580442843817 9 442 539
1.0953487299351068 1.3024957052010044 0.024400823990395448 9 443 245
1.082839713245978 1.2767833313850683 0.019566423202375782 9 443 254
1.044199909016742 1.2363206244923646 0.029770900123768262 9 443 271
1.0187047668246731 1.2033429719936186 0.03245234675698416 9 443 284
0.9896708250010864 1.153513247323016 0.02758647450037266 9 443 302
0.5932800786264221 0.5737916593690451 0.02605220177579337 9 443 518
0.5909293566251198 0.5526160930152306 0.014598941635799223 9 443 522
0.9510415516139916 1.1062007116404038 0.02879395119762118 9 444 321
0.6852713927796857 0.7148663883750732 0.026011417370055412 9 444 467
1.0602678711845446 1.2639811613977536 0.02339737013920251 9 445 261
0.9466229687828132 1.0932302638751734 0.019970483029924102 9 445 325
1.0875597206352563 1.3140450072813041 0.025550600261501355 9 446 243
1.05761342651031 1.2546550298150776 0.015262428892619528 9 446 264
0.9631978323650174 1.136773340712204 0.02801232252950636 9 446 311
1.0743845903403777 1.310327614044288 0.031091795396330557 9 447 246
1.0521414895968442 1.2723415922433452 0.027426425357639284 9 447 260
0.9989504536056584 1.200933188411966 0.031358937928162245 9 447 288
0.8505444997334581 1.6707738766934117 0.4764529971340996 9 448 144
0.7465219830081008 1.4837435835977577 0.45308905810382916 9 448 243
0.993313806065605 1.1779741762234344 0.017131544389664022 9 448 295
1.0514079575416417 1.2837739054154245 0.026519937902940605 9 449 257
0.9542135901471753 1.1430204041297762 0.026968364287685898 9 449 311
0.9497577734759428 1.1344681681017035 0.02560803924112287 9 449 314
0.5517019361827123 0.5502845390142364 0.02235834015494631 9 449 533
0.9639299369274723 1.1710064605040387 0.031539424554779316 9 450 302
0.6310797227403367 0.6761297411817238 0.0245503989501743 9 450 488
0.5419298542837373 0.5358856718256573 0.017599479130709916 9 450 538
0.989066275860748 1.2073444578996346 0.02684014632009779 9 451 288
0.579577221111634 0.5931878951974487 0.014624663295850215 9 451 517
1.061052243251097 1.3110365363952983 0.021611149761515902 9 452 248
1.0345903586024154 1.2755103429545445 0.02357906109186536 9 452 262
1.0161824411180425 1.2535189003154623 0.02675557496903913 9 452 271
1.0028125227384606 1.2432407285615183 0.03284424207042114 9 452 276
0.9532212693863582 1.1590935107990443 0.024865364872695306 9 452 307
0.6782570687290702 0.7493213984392717 0.01833879918631598 9 452 461
0.5571841917772611 0.5790096627316985 0.02218539054331048 9 452 526
1.0190609881369022 1.2666278162995523 0.019057985980351022 9 455 267
0.9957842237357424 1.2366924326777111 0.02167706810437009 9 455 279
0.6919807422419705 0.795257819942826 0.0218527558731878 9 455 448
0.6024330466766148 0.6604480502677983 0.01875707243355995 9 455 498
0.5852819466841449 0.6378333184668725 0.020313232906020495 9 455 507
0.9566939387283986 1.1909860249439268 0.02459677596361698 9 456 298
0.700579355587328 0.8286578600521932 0.03130905594921596 9 456 439
0.5663746297287698 0.6295635278906475 0.028616027802358612 9 456 514
0.5575172213117122 0.6031724486934356 0.019525817649359567 9 456 521
1.009200971609531 1.2652832410915638 0.01868247796711997 9 457 269
0.6675550516769527 0.7760996069441259 0.023666770025555728 9 457 458
0.6251302538040988 0.7269386708156464 0.02753079453170959 9 458 479
1.0122403993562599 1.292336286263015 0.024923118371889208 9 459 261
0.9836424580500904 1.2479820745991088 0.023021750223656046 9 459 278
0.9300450322678986 1.186513756705555 0.034165553451698694 9 459 304
0.5336919402713719 0.5957180773330024 0.024063848269664234 9 459 529
0.9785528678547033 1.236524856720405 0.01571103508230065 9 460 282
0.958170483903211 1.2199460333901337 0.024589385727212587 9 460 290
0.947816447689168 1.204413732736172 0.024255888273125414 9 460 296
0.5242232065167913 0.5747128005875661 0.01452221289501443 9 460 535
0.9939580565896617 1.2780443475590395 0.024227633545329752 9 461 268
0.9368658968463068 1.1930070595880322 0.022790128198875603 9 461 301
0.9204832326482346 1.1702814200526421 0.023522890640705896 9 461 310
0.6934048497752254 0.8389310191945807 0.022504805741997203 9 461 438
0.6398104718234566 0.7657542913057149 0.02570021339659667 9 461 467
0.6016789986631199 0.7116911146681957 0.026607511982399856 9 461 488
0.6552436431155008 0.7944623473895791 0.02543671107734924 9 462 457
1.0143931264551016 1.3127703303694527 0.018625858228202397 9 463 255
0.9674614878692038 1.2616494970726757 0.030340309458004366 9 463 277
0.6351332079610117 0.7761838774776797 0.02837791560080838 9 463 466
0.537062121687698 0.6133438437869669 0.014335056401356239 9 463 524
0.7768025412002734 1.6374561172159456 0.47608510998769127 9 464 172
0.9281118597983127 1.202670631629613 0.024558998202509175 9 464 300
0.5699877128187971 0.6826158329159382 0.02452090263317519 9 464 502
0.5251117439719806 0.6238558858485086 0.02893647106850583 9 464 526
0.6264352665829961 0.765868848101932 0.020840344211954465 9 465 470
0.5811495909446791 0.7076984636096291 0.02608323154269243 9 465 494
0.5474035281882307 0.6701845128742954 0.034027425310801274 9 465 511
0.5442476857806013 0.6518602037801664 0.024516423491169448 9 465 515
0.5155457982025141 0.6166944530294516 0.029017552528696644 9 465 530
0.9377610235916929 1.2258921720291465 0.021883432742539677 9 466 292
0.6760476682000358 0.8582066862481892 0.030365829389582988 9 466 438
0.6454706228337709 0.7995402159673524 0.02045104687529009 9 466 458
0.5628085111718405 0.6929987455035924 0.02978961399407476 9 466 502
0.9816467790734411 1.2997941337915024 0.02445975366814812 9 467 264
0.917061182734545 1.1951315962622533 0.016852059448501988 9 467 304
0.6003379540628939 0.7511434284158764 0.02778869372949977 9 467 480
0.5356556691487856 0.6533026299276057 0.025029879989759918 9 467 517
0.5145096915452724 0.6344032307576422 0.03324252921949267 9 467 527
0.5026827943114582 0.6214750354382721 0.036193703344088446 9 467 533
0.9672316028178227 1.2835332742472738 0.0231996399783978 9 468 271
0.9594726413003996 1.2739281262775273 0.024355676094169443 9 468 275
0.6406600073712116 0.8088133118381964 0.018074014408415717 9 469 457
0.7465992171972553 1.6213039195527852 0.4766949145528152 9 470 185
0.9754694354219811 1.3001132172768268 0.017406706299952557 9 470 265
0.9068774918690377 1.2095838972179194 0.023722847001812486 9 470 302
0.6616626155689969 0.8544136419884965 0.024134427645094103 9 470 442
0.578389425490614 0.7285046607189543 0.020550763168151853 9 470 490
0.5245367011520593 0.6457170048575633 0.017275313924346225 9 470 521
0.6457497503376854 0.8406964650188642 0.026187932355726806 9 471 449
0.9538912484107731 1.2810931273580146 0.017022873971448638 9 472 274
0.8845704570599683 1.2102772517848384 0.03805569507432671 9 472 306
0.5480927831506848 0.70550721622389 0.02620736788974165 9 472 503
0.9459910378324254 1.2681010213797559 0.011405178062816379 9 473 279
0.6362187596326984 0.8268868509345813 0.01709430289094338 9 473 454
0.6214816371583088 0.8179493502960546 0.025919807549194873 9 473 460
0.567158484202843 0.7371248249601186 0.01991169675775062 9 474 491
0.7113433738144974 1.6030507793245523 0.4845316339762844 9 475 200
0.9265332427099817 1.2623261086830155 0.018329928780034477 9 475 284
0.9088450843603649 1.241232438099034 0.021580220796863614 9 475 293
0.5580000201808353 0.7350388721871566 0.02333780720603862 9 475 494
0.9016034452680717 1.2314447438491523 0.017577068450930655 9 476 297
0.5248032877624128 0.6904177838927144 0.021290646513588474 9 476 512
